# .PCD v0.7 - Point Cloud Data file format
VERSION 0.7
FIELDS x y z intensities index
SIZE 4 4 4 4 4
TYPE F F F F F
COUNT 1 1 1 1 1
WIDTH 1014
HEIGHT 1
VIEWPOINT 0 0 0 1 0 0 0
POINTS 1014
DATA ascii
-0.36490816 1.5216669 -0.00061830797 36 56
-0.34584266 1.5216669 -0.00019507762 26.470589 55
-0.32724604 1.5216668 -0.00039162731 26.307692 54
-0.30881101 1.5216669 -0.00042250555 26.666666 53
-0.29064181 1.5216666 -0.00064663886 25.666666 52
-0.27288097 1.5216666 -0.0016490698 26 51
-0.25467792 1.5216666 -0.0004710436 25.75 50
-0.23708345 1.5216666 -0.00088982581 8 49
0.15048997 1.5216666 -0.00015621186 28 26
0.16757052 1.5216666 -0.00033943649 25.333334 25
0.18471505 1.5216669 -0.00027645304 24.5 24
0.20209016 1.5216666 -0.00075947045 26 23
0.21935228 1.5218363 -0.00011909805 25.222221 22
0.23708348 1.5216666 -0.00088982581 26 21
0.2547265 1.5216669 -0.00065215223 25.375 20
0.27266052 1.5216666 -0.0008800744 23.799999 19
0.29067597 1.5216666 -0.00075820682 26 18
0.30876985 1.521667 -0.00029569856 26.1 17
0.32729623 1.5216668 -0.00053709006 26.76923 16
0.34586003 1.521667 -0.00024281464 26 15
0.36485118 1.5216666 -0.0004697323 26.90909 14
0.38408419 1.5216671 -0.0006415784 24.4 13
0.40373933 1.521794 -0.0011499879 24.833334 12
0.42329991 1.5216671 -0.00074704975 23.5 11
0.4434776 1.5216671 -0.0010405747 22.214285 10
0.46373522 1.521728 -0.00079825445 22.360001 9
0.48456335 1.5216671 -0.0010094595 21.828571 8
0.505409 1.5217165 -0.00053580914 22.258064 7
0.5271244 1.5217624 -0.00095761148 22.25 6
0.54881662 1.5217181 -0.00057834422 22.166666 5
0.55024999 1.5216666 -0.0030609251 23 5
0.57160658 1.521667 -0.0013128105 21.833334 4
0.59433198 1.5216671 -0.0011298251 20.068966 3
0.6173799 1.5217258 -0.00068143569 19.307692 2
0.6411494 1.5216671 -0.00054337154 17.125 1
-0.61724925 1.5317378 -0.00048062627 18.727272 68
-0.5942322 1.5316663 -0.00097031926 17.90909 67
-0.57133985 1.5316663 -0.0008692214 18.947369 66
-0.54887104 1.5316675 -0.00067287259 21.757576 65
-0.52713555 1.5316663 -0.00097786204 18.347826 64
-0.50544918 1.531666 -0.00061153201 21.560976 63
-0.48451361 1.5316662 -0.0009118719 22.6 62
-0.46365044 1.5316933 -0.00062455382 23.633333 61
-0.44348034 1.5316662 -0.0010464581 24 60
-0.42326301 1.5316671 -0.00066424144 25.964912 59
-0.40367031 1.5316663 -0.00098775653 27.692308 58
-0.38414347 1.5316663 -0.00078842341 25.416666 57
-0.36495644 1.5316663 -0.00074398704 27.692308 56
-0.34588245 1.531666 -0.00030427982 25.463415 55
-0.32728481 1.5316663 -0.00050403731 25.727272 54
-0.30874664 1.5316664 -0.00022436981 25.875 53
-0.29064995 1.5316666 -0.00067320256 26.444445 52
-0.27263042 1.5316666 -0.00077521143 24.545454 51
-0.25475186 1.5316666 -0.00074701302 26 50
-0.23708345 1.5316666 -0.00088982581 24.666666 49
-0.21932723 1.5316666 -1.0836126e-05 27.454546 48
0.15048997 1.5316666 -0.00015621186 28 26
0.1675705 1.5319813 -0.00033943652 27.6 25
0.18471435 1.5317589 -0.00027284413 24.588236 24
0.20209016 1.5316666 -0.00075947039 25.714285 23
0.21933667 1.5316663 -5.1434352e-05 25.416666 22
0.23708348 1.5316666 -0.00088982581 25 21
0.25471249 1.5316664 -0.00059982931 24.799999 20
0.27266902 1.5316665 -0.00090965111 24.923077 19
0.29064673 1.5316666 -0.00066257705 26 18
0.30872732 1.5316664 -0.00016492905 27.25 17
0.3272132 1.5316663 -0.00029592196 27.473684 16
0.34585488 1.5316662 -0.00022857718 25.818182 15
0.36483651 1.5316663 -0.00043153757 26.6 14
0.38411656 1.531702 -0.00072166114 25.045454 13
0.40377563 1.5316663 -0.0012355491 24.76923 12
0.42315087 1.5316938 -0.00041241606 22.881355 11
0.44360834 1.5316663 -0.001321079 23.703703 10
0.46360868 1.5316923 -0.00053888897 22.825397 9
0.48453158 1.5316663 -0.00094697328 20.545454 8
0.50545025 1.5316912 -0.00061348645 22.363636 7
0.52717 1.531666 -0.0010396156 22.049999 6
0.54882598 1.5316675 -0.00059465884 21.797102 5
0.55000001 1.5316666 -0.0026279569 22 5
0.57139069 1.531666 -0.00095390703 22 4
0.59427154 1.5316993 -0.0010329593 21.041666 3
0.61748469 1.5316951 -0.00084272271 18.214285 2
0.64121318 1.5316675 -0.00063785544 18.764706 1
-0.61722922 1.5416536 -0.00044963983 20.5 68
-0.59428185 1.5416548 -0.0010496262 20.285715 67
-0.5714792 1.5416669 -0.0011010136 19.655172 66
-0.54886478 1.5416555 -0.00066187041 20.81081 65
-0.52708042 1.5416665 -0.00087826257 20.285715 64
-0.50547653 1.5416563 -0.00066288677 20.666666 63
-0.4846707 1.5416441 -0.0012198129 23.894737 62
-0.46361953 1.5416666 -0.00056116848 23.846153 61
-0.44349027 1.5416532 -0.0010677268 23.67742 60
-0.42318505 1.5416582 -0.00048921967 24.879999 59
-0.40386942 1.5416398 -0.0014568599 27.625 58
-0.38411894 1.5416669 -0.00072771404 24.571428 57
-0.36489323 1.5416489 -0.00057940971 25.083334 56
-0.34588754 1.5416503 -0.00031838909 25.307692 55
-0.32726109 1.5416665 -0.00043526883 25.866667 54
-0.30879232 1.5416665 -0.00036486864 24.545454 53
-0.29061747 1.5416667 -0.00056694745 24.666666 52
-0.27269718 1.5416666 -0.0010082403 24.666666 51
-0.25467792 1.5416666 -0.00047104358 26.4 50
-0.23708345 1.5416666 -0.00088982581 25.333334 49
-0.21932724 1.5416667 -1.0836126e-05 26 48
-0.18470308 1.5416666 -0.00021510124 28 46
-0.16757047 1.5416666 -0.00033943652 26 45
0.083146594 1.5416666 -0.00036971568 30 30
0.1506464 1.5416666 -0.0011438609 28 26
0.18474129 1.542032 -0.00041142706 26 24
0.20209017 1.5416666 -0.00075947045 25.200001 23
0.21936476 1.5416665 -0.00017322901 25.666666 22
0.23708348 1.5416666 -0.00088982581 24.4 21
0.25467798 1.5416667 -0.0004710436 26 20
0.27260539 1.5416667 -0.00068782561 24.888889 19
0.29069722 1.5416667 -0.00082775572 25.272728 18
0.30874237 1.5416665 -0.00021116073 27.333334 17
0.32722107 1.5419476 -0.00031889131 27.692308 16
0.34585387 1.5416671 -0.00022592972 25.534883 15
0.36500448 1.5416669 -0.00086895563 25.851852 14
0.38412657 1.5417463 -0.00074638368 25.652174 13
0.40380573 1.5416667 -0.001306348 23.923077 12
0.423305 1.5417413 -0.00075844285 23.306122 11
0.44344187 1.5418324 -0.00096407701 23.181818 10
0.46361199 1.5417304 -0.00054565014 23.754387 9
0.48463473 1.5416669 -0.0011494725 22.5 8
0.50530481 1.5417413 -0.00033992427 20.857143 7
0.52716321 1.5417686 -0.0010274616 21.611111 6
0.54884899 1.5417354 -0.00063444499 21.924528 5
0.55000001 1.5416666 -0.0026279569 22 5
0.5714348 1.541667 -0.0010270826 22.375 4
0.5942111 1.541667 -0.00093631248 20.705883 3
0.61744326 1.5417463 -0.00077891228 21.217392 2
0.64129806 1.5417231 -0.00076358538 22.375 1
-0.61750335 1.5516664 -0.00087153231 20.196079 68
-0.59425491 1.5516664 -0.001006463 20.4375 67
-0.57133818 1.5516664 -0.00086640147 20.8125 66
-0.54876739 1.5516664 -0.00049314043 20 65
-0.5271855 1.5516664 -0.0010679999 21.25926 64
-0.50550359 1.5516664 -0.00071382598 21.791666 63
-0.48454118 1.5516664 -0.00096602889 22.235294 62
-0.46364 1.5516664 -0.00060314313 24.085714 61
-0.44346479 1.5516664 -0.0010131872 24.076923 60
-0.42324531 1.5516664 -0.00062464247 25.235294 59
-0.40381128 1.5516665 -0.0013198906 27.238094 58
-0.38413101 1.5516664 -0.00075751881 25.200001 57
-0.364894 1.5516664 -0.00058145955 25.68421 56
-0.34586963 1.5516664 -0.00026917137 25.021276 55
-0.32724482 1.5516664 -0.00038799044 27.200001 54
-0.30872521 1.5516664 -0.00015832453 24.777779 53
-0.29070097 1.5516664 -0.00084017502 25.857143 52
-0.27260533 1.5516666 -0.00068782567 25.200001 51
-0.25471026 1.5516665 -0.00059178023 25.75 50
-0.23708345 1.5516666 -0.00088982581 26 49
-0.21932727 1.5516666 -1.0836125e-05 27 48
0.15048997 1.5516666 -0.00015621186 28 26
0.16757049 1.5516665 -0.00033943655 27.142857 25
0.1847178 1.5516664 -0.00029061118 26.76923 24
0.20219412 1.5516666 -0.0012485266 25 23
0.21935542 1.5516664 -0.00013263081 26.166666 22
0.23714799 1.5518154 -0.0011485735 25.200001 21
0.25467798 1.5516664 -0.00047104355 25.333334 20
0.27271563 1.5516665 -0.0010723232 25.4 19
0.2906175 1.5516666 -0.00056694745 26.666666 18
0.30877674 1.5516664 -0.00031683303 27.037037 17
0.32728484 1.5516664 -0.00050403742 26.545454 16
0.34586576 1.5516664 -0.00025844248 25.707317 15
0.36485219 1.5516664 -0.00047238456 25.6875 14
0.3840825 1.5516664 -0.00063735974 24.545454 13
0.40371224 1.5516664 -0.0010860579 24.444445 12
0.42317697 1.5516988 -0.00047121139 22.52174 11
0.44345877 1.5517362 -0.001000117 22.0625 10
0.46356693 1.5517019 -0.00045329021 23.269842 9
0.48453534 1.5517362 -0.00095456425 22.375 8
0.50543004 1.5516664 -0.00057538738 21.525423 7
0.52711451 1.5516664 -0.00093978248 22 6
0.54876655 1.5517037 -0.00049173948 22.1 5
0.55000001 1.5516666 -0.0026279569 22 5
0.57143474 1.5516664 -0.0010270824 21.555555 4
0.59419864 1.5516664 -0.00091636059 20.049999 3
0.61736941 1.5517094 -0.00066531036 19.653847 2
0.64121264 1.5516664 -0.00063691597 20.675325 1
-0.61762083 1.5616677 -0.0010524337 20.08 68
-0.59430462 1.5616672 -0.0010859738 19.6875 67
-0.57129741 1.5616671 -0.00079854339 18.866667 66
-0.5487386 1.5616676 -0.00044324622 19.09091 65
-0.52727085 1.5616668 -0.0012218662 21.083334 64
-0.50553036 1.5616677 -0.00076416822 21.543859 63
-0.48453152 1.5616672 -0.00094697421 22.787878 62
-0.46366811 1.5616679 -0.00066049543 24.213333 61
-0.44353795 1.5616676 -0.0011700303 24.173914 60
-0.42334509 1.5616678 -0.00084855652 23.818182 59
-0.40374464 1.5616673 -0.0011628056 26.666666 58
-0.38411427 1.5616677 -0.00071579253 26.280001 57
-0.36490217 1.5616671 -0.00060275005 26.200001 56
-0.34585392 1.5616844 -0.00022592839 24.27907 55
-0.32727414 1.5616668 -0.0004730915 26.32 54
-0.30871996 1.561667 -0.00014206723 26.384615 53
-0.290654 1.5616666 -0.00068648451 26.75 52
-0.27260533 1.5616666 -0.00068782567 26 51
-0.25473544 1.5616666 -0.00068568648 25.777779 50
-0.21932723 1.5616666 -1.0836126e-05 26 48
-0.18470307 1.5616666 -0.00021510124 28.666666 46
0.033189438 1.5616666 -0.00042067765 26 33
0.15048997 1.5616666 -0.00015621186 27.142857 26
0.16757049 1.5616666 -0.00033943655 26.333334 25
0.18472047 1.5616666 -0.00030434012 25.636364 24
0.20209017 1.5616666 -0.00075947045 26 23
0.21938598 1.5616667 -0.00026501619 26.608696 22
0.23710766 1.5616666 -0.00098685618 26 21
0.25469026 1.5616666 -0.0005170384 26.476191 20
0.27262509 1.5616666 -0.00075648585 25.714285 19
0.2906723 1.5616666 -0.000746253 27.125 18
0.30874375 1.561667 -0.00021522507 27.461538 17
0.32724747 1.5617049 -0.00039545546 27.68421 16
0.34591708 1.5616894 -0.00039942938 26.424242 15
0.36488754 1.561667 -0.00056440267 25.076923 14
0.38418218 1.5616677 -0.00088394317 23.333334 13
0.4037852 1.5616666 -0.0012580716 22.09091 12
0.42327729 1.5616772 -0.00069630001 22.410257 11
0.44348195 1.5616676 -0.0010498234 21.428572 10
0.46362588 1.5616773 -0.00057391066 22.753246 9
0.48449844 1.5616856 -0.00088217593 22.299999 8
0.50533044 1.5616792 -0.00038797664 21.174603 7
0.5271244 1.5616672 -0.00095761701 21.375 6
0.54876149 1.561679 -0.00048285746 22.646154 5
0.55000001 1.5616666 -0.0026279569 24 5
0.57133281 1.5616676 -0.00085763831 21.767443 4
0.59429783 1.5616674 -0.0010750865 20.153847 3
0.61750972 1.5616676 -0.00088123832 19.428572 2
0.64122552 1.5616792 -0.00065604929 20.190475 1
-0.61762065 1.5717452 -0.0010524238 21.565218 68
-0.59445173 1.5716666 -0.0013215378 21.777779 67
-0.5714919 1.5717933 -0.0011223621 18.555555 66
-0.54871213 1.5716381 -0.00039731254 20.969696 65
-0.52715665 1.5718651 -0.0010158872 20 64
-0.50537246 1.5716666 -0.00046712358 21.352942 63
-0.48474497 1.5716666 -0.0013658596 24.799999 62
-0.46363503 1.5717292 -0.00059300655 25.192982 61
-0.44357583 1.5716425 -0.0012513682 24.923077 60
-0.42330915 1.5717373 -0.00076794997 24.431372 59
-0.40379614 1.5717798 -0.00128426 26.1875 58
-0.3841261 1.5717371 -0.00074524165 26.352942 57
-0.36496195 1.5716041 -0.00075834978 27.466667 56
-0.34586209 1.5716355 -0.00024850952 26.133333 55
-0.32724854 1.5716364 -0.00039866226 26.193548 54
-0.30881464 1.5716342 -0.00043343709 26.482759 53
-0.29061747 1.5716666 -0.00056694745 26 52
-0.27266043 1.5723917 -0.00088007451 26.799999 51
-0.25471029 1.5716666 -0.00059178023 25.5 50
-0.23708345 1.5716666 -0.00088982581 24 49
-0.21936816 1.5716666 -0.00018799202 25.09091 48
-0.18470308 1.5716666 -0.00021510124 28 46
-0.16757047 1.5716666 -0.00033943652 28 45
-0.15048994 1.5716666 -0.00015621186 22 44
0.1336062 1.5716666 -0.00065730809 26.666666 27
0.15048997 1.5716666 -0.00015621186 28 26
0.16758136 1.5716666 -0.00040098943 27.75 25
0.18472221 1.5716666 -0.00031326414 25.4 24
0.20209017 1.5716666 -0.00075947045 26.5 23
0.21935731 1.5716666 -0.0001407504 25.266666 22
0.23710206 1.5716666 -0.0009644645 26 21
0.25471249 1.5716666 -0.00059982931 26.266666 20
0.27262837 1.5716666 -0.00076792925 26 19
0.2906175 1.5716666 -0.00056694739 27.200001 18
0.30884242 1.5716666 -0.00051898893 27.304348 17
0.32726461 1.5716174 -0.0004452159 26.947369 16
0.345893 1.5716666 -0.00033326563 25.882353 15
0.36495942 1.5716666 -0.00075163681 25.857143 14
0.38416943 1.5716656 -0.00085230469 21.418182 13
0.40377933 1.5716666 -0.0012441289 22.787878 12
0.42313942 1.5716654 -0.00038677937 23.049181 11
0.44342327 1.5716666 -0.00092405104 20.685715 10
0.46361452 1.5716649 -0.00055056042 22.129869 9
0.48455036 1.5716399 -0.00098399981 23.142857 8
0.50543928 1.5716654 -0.00059277588 21.838709 7
0.52718657 1.5716664 -0.0010694354 20.90909 6
0.54876119 1.5716652 -0.00048226112 21.492537 5
0.55000001 1.5716666 -0.0026279569 22 5
0.57132626 1.5716666 -0.0008466221 20.473684 4
0.59426278 1.5716666 -0.001019013 20.631578 3
0.61735332 1.5716655 -0.00064016366 19.79661 2
0.64134693 1.5717293 -0.00083601754 21.15493 1
-0.61768997 1.5817083 -0.001158729 20.056337 68
-0.59444588 1.5816664 -0.0013121151 19.666666 67
-0.5714888 1.581666 -0.0011173465 20.736841 66
-0.5488711 1.5817116 -0.00067286717 20.545454 65
-0.52723873 1.5816664 -0.001164061 21.034483 64
-0.50556225 1.5816658 -0.00082419103 21.464285 63
-0.48468 1.5817209 -0.001238573 23.418182 62
-0.46359843 1.5816655 -0.00051783846 25.780823 61
-0.4435055 1.5817242 -0.0011003292 24.615385 60
-0.42323449 1.5816655 -0.00060034939 25.260275 59
-0.4037981 1.5817242 -0.0012886911 26.5 58
-0.3841829 1.5816656 -0.00088581949 26.535212 57
-0.36491939 1.5816662 -0.00064748467 27.4375 56
-0.34592482 1.5817291 -0.00042078702 26.708334 55
-0.32726839 1.5816659 -0.00045627897 26 54
-0.30878904 1.5817382 -0.00035457459 24.904762 53
-0.29068625 1.5816668 -0.00079195836 26 52
-0.27260533 1.5816666 -0.00068782567 25.666666 51
-0.25470838 1.5816668 -0.00058467803 26.117647 50
-0.23708345 1.5816666 -0.00088982581 28 49
-0.21934974 1.5816667 -0.00010827188 26.4 48
-0.20209014 1.5847007 -0.00075947045 26 47
-0.18470307 1.5816666 -0.00021510124 26.666666 46
-0.15048994 1.5816666 -0.00015621186 22 44
0.083146594 1.5816666 -0.00036971568 25 30
0.11675084 1.5816666 -0.00085918902 28 28
0.1336062 1.5816666 -0.00065730809 30 27
0.15048999 1.5816668 -0.00015621189 27 26
0.16759942 1.5816668 -0.0005035777 26.833334 25
0.1847385 1.5816665 -0.00039688428 25.037037 24
0.20213175 1.5816667 -0.00095509284 27 23
0.21939389 1.5816658 -0.00029953453 25.25926 22
0.23718023 1.5816668 -0.0012779436 25.866667 21
0.25471023 1.581666 -0.00059178198 24.950001 20
0.2726478 1.5816665 -0.00083570951 24.846153 19
0.29066908 1.5816668 -0.00073570566 27.529411 18
0.30879101 1.581666 -0.00036064841 26.975609 17
0.32728559 1.581666 -0.00050618651 27.299999 16
0.34588566 1.5816658 -0.00031293035 25.849056 15
0.36489025 1.5816664 -0.00057158462 25.733334 14
0.38422349 1.5816656 -0.000986384 20.3125 13
0.40377635 1.5816659 -0.0012371561 22.863636 12
0.42325521 1.5816655 -0.00064680778 22.1 11
0.44352922 1.5817291 -0.0011511605 22.25 10
0.463745 1.5816655 -0.00081776956 22.709677 9
0.48460743 1.5816658 -0.001096013 22.76 8
0.50542593 1.5816656 -0.00056846137 23.439024 7
0.52727109 1.5816659 -0.0012218266 22.166666 6
0.54884112 1.5817013 -0.00062079617 20.77647 5
0.55000001 1.5816666 -0.0026279569 22 5
0.57139784 1.5816656 -0.00096585631 20.952381 4
0.59440094 1.5816659 -0.0012401458 20.545454 3
0.61750245 1.5817045 -0.0008696008 20.23077 2
0.64127624 1.5816993 -0.0007310565 21.266666 1
-0.61762083 1.591779 -0.0010524302 20 68
-0.59429604 1.5917976 -0.0010722934 19.290323 67
-0.57138711 1.5918578 -0.00094775518 20.296297 66
-0.55049998 1.5905635 -0.0034939528 20 65
-0.54889357 1.5917766 -0.00071167795 19.957447 65
-0.5272789 1.5916668 -0.0012364414 22.4 64
-0.50554687 1.5916476 -0.00079514587 23.333334 63
-0.48467153 1.5917612 -0.0012219906 22.232557 62
-0.4636687 1.5917233 -0.00066198927 25.027779 61
-0.44355205 1.5917571 -0.0012002486 25.466667 60
-0.42332092 1.591715 -0.00079417974 26.547619 59
-0.40398693 1.5917274 -0.0017333487 26.268656 58
-0.38426888 1.5917559 -0.0010988105 26.517241 57
-0.36501572 1.5916394 -0.00089838094 25.6 56
-0.34589636 1.5916387 -0.0003424793 27.384615 55
-0.32725632 1.5918169 -0.00042126037 24.962963 54
-0.30885902 1.5916413 -0.0005699583 24.976744 53
-0.29065922 1.5916274 -0.00070356141 25.928572 52
-0.27267426 1.5916666 -0.00092813658 25.5 51
-0.25467795 1.5916666 -0.00047104355 26 50
-0.23708345 1.5916666 -0.00088982581 24.666666 49
-0.21935537 1.5921731 -0.00013263081 25.75 48
-0.20209014 1.5905635 -0.00075947045 26 47
-0.16757047 1.5916666 -0.00033943652 27 45
0.083190173 1.591115 -0.00086783175 25 30
0.099929221 1.5916666 -0.00076292752 27 29
0.11675084 1.5916666 -0.00085918902 26 28
0.1336062 1.5916666 -0.00065730809 23.333334 27
0.15049918 1.5916667 -0.00021430886 27.058823 26
0.16758789 1.5916116 -0.0004379212 24.5 25
0.18473224 1.591643 -0.00036447949 24.52174 24
0.2021075 1.5915745 -0.00084097969 26 23
0.21939778 1.5916454 -0.00031651676 25.019608 22
0.23715258 1.5916666 -0.0011670555 25.571428 21
0.25477567 1.5916671 -0.00083593966 23.688889 20
0.27268508 1.591638 -0.00096608093 24.368422 19
0.29068014 1.5916275 -0.00077186833 26.214285 18
0.30881113 1.5916669 -0.00042250543 27.384615 17
0.3272962 1.5916669 -0.00053709635 26.820513 16
0.34586126 1.5916669 -0.00024610251 27.23077 15
0.36506271 1.5916671 -0.0010205127 23.74468 14
0.38422808 1.5916476 -0.00099781947 18.842106 13
0.40379634 1.5916671 -0.0012842141 21.958334 12
0.42329144 1.5916671 -0.00072811358 22 11
0.44356808 1.5916671 -0.0012347633 22.653061 10
0.46366978 1.5916671 -0.00066390343 22.263159 9
0.48462787 1.5916669 -0.0011359698 24.727272 8
0.50545692 1.5917137 -0.00062655535 22.302326 7
0.52718616 1.5916671 -0.0010686135 22.612246 6
0.54879105 1.5916531 -0.00053412904 20.303797 5
0.55000001 1.5916666 -0.0026279569 20.5 5
0.57150942 1.5916492 -0.0011515201 20.806452 4
0.59430951 1.5916671 -0.0010936687 20 3
0.6174947 1.5917418 -0.00085792062 20.173914 2
0.64127713 1.5917137 -0.00073256285 19.83721 1
-0.61747962 1.601667 -0.00083498663 19.962963 68
-0.59428424 1.6016663 -0.0010533492 19.897436 67
-0.57152557 1.6016665 -0.0011783881 18.764706 66
-0.54893535 1.6016673 -0.00078418769 21.645161 65
-0.52727413 1.6017615 -0.0012274758 22.307692 64
-0.50557035 1.6017245 -0.0008394678 23.846153 63
-0.48467094 1.6017412 -0.0012207502 23.440001 62
-0.46367452 1.6017147 -0.00067385001 24.734177 61
-0.44356588 1.6017371 -0.001229891 22.792454 60
-0.42331561 1.601668 -0.00078235747 25.195652 59
-0.40391415 1.6016675 -0.0015619086 24.666666 58
-0.38424817 1.6017141 -0.0010472534 25.1 57
-0.3648954 1.6016665 -0.00058496819 26.238094 56
-0.34586793 1.6016669 -0.00026417177 27.576923 55
-0.32732958 1.6017616 -0.00063407468 25.948717 54
-0.30878347 1.6016663 -0.00033745347 26.04878 53
-0.29066363 1.6018624 -0.00071794156 25.68421 52
-0.27263042 1.6016667 -0.00077521143 25.454546 51
-0.25467795 1.6016667 -0.00047104358 25 50
-0.23708346 1.6016667 -0.00088982581 26 49
-0.21937725 1.6016666 -0.00022735998 25.777779 48
-0.20209014 1.6016666 -0.00075947045 26 47
-0.18470308 1.6016666 -0.00021510124 26 46
-0.16762836 1.6016666 -0.00066771911 26.666666 45
0.083146594 1.6016666 -0.00036971568 28 30
0.099929221 1.6016666 -0.00076292752 25.333334 29
0.11675084 1.6016666 -0.00085918902 27 28
0.13365258 1.6016666 -0.00098741846 27.333334 27
0.15050483 1.6016665 -0.00025027359 26.666666 26
0.16759039 1.6016663 -0.00045199043 25.142857 25
0.18472019 1.6016666 -0.00030235705 25.688889 24
0.20211002 1.6016669 -0.00085262407 25.428572 23
0.21939531 1.6016679 -0.00030540951 24.674419 22
0.2371137 1.6016668 -0.001011114 25.083334 21
0.25474501 1.601667 -0.00072146178 24.74074 20
0.27266657 1.6016663 -0.00090143573 25.444445 19
0.29070872 1.6016673 -0.00086481095 25.213116 18
0.30880675 1.6016667 -0.0004090142 27.106382 17
0.32730454 1.6016666 -0.0005613406 27.333334 16
0.34588194 1.601667 -0.00030261604 27.672728 15
0.36497968 1.6016675 -0.00080430921 23.188406 14
0.38424081 1.6017153 -0.0010290948 22.153847 13
0.40376458 1.6016673 -0.0012091442 22.576271 12
0.42330363 1.6017078 -0.00075523613 23.010754 11
0.44346017 1.6016672 -0.001003097 23.85965 10
0.46373656 1.6016682 -0.00080039341 22.14679 9
0.48458791 1.6016675 -0.0010577523 22.382353 8
0.50555152 1.6016681 -0.00080471137 21.705883 7
0.52726543 1.6016674 -0.0012114212 21.968254 6
0.54885554 1.601668 -0.00064590084 21.360825 5
0.55016667 1.6016666 -0.0029166024 21.666666 5
0.57149595 1.6016674 -0.001129132 20.761906 4
0.5943163 1.6016675 -0.0011043963 19.797102 3
0.61745435 1.6016681 -0.00079565455 20.816326 2
0.64132208 1.601668 -0.00079910579 18.215054 1
-0.61748463 1.611707 -0.00084275985 19.892857 68
-0.59428692 1.6116673 -0.0010576948 20 67
-0.57147759 1.6116673 -0.0010985534 20.666666 66
-0.55049998 1.6116667 -0.0034939528 20 65
-0.54890287 1.6116999 -0.00072789472 21.61194 65
-0.52731448 1.6116663 -0.0013000532 20.90909 64
-0.50553858 1.6117063 -0.00077965495 22.245613 63
-0.48468637 1.6117063 -0.0012510781 23.508772 62
-0.46376622 1.6116974 -0.00086171617 24.333334 61
-0.44348922 1.6116664 -0.001065472 23.538462 60
-0.42329863 1.6116891 -0.00074388034 26.166666 59
-0.40387914 1.6116656 -0.0014792719 25.792208 58
-0.38419551 1.6116999 -0.00091700169 25.343283 57
-0.36491415 1.6117176 -0.00063387182 26.133333 56
-0.3459006 1.6117078 -0.00035386844 27.6 55
-0.32730454 1.6116673 -0.00056134141 25.833334 54
-0.30882794 1.6116667 -0.00047426723 25.795918 53
-0.29063836 1.6118295 -0.00063525426 26.142857 52
-0.27260533 1.6116667 -0.00068782561 25.777779 51
-0.25471771 1.6116672 -0.00061964249 25.615385 50
-0.23708345 1.6116667 -0.00088982581 25 49
-0.2193433 1.6116668 -8.0433099e-05 24.142857 48
-0.20209014 1.6116667 -0.00075947045 25 47
-0.1847031 1.6116667 -0.00021510124 25.666666 46
0.083146594 1.6116667 -0.00036971565 27.333334 30
0.11675084 1.6116667 -0.00085918902 29 28
0.1336062 1.6116667 -0.00065730809 30 27
0.15049917 1.6116673 -0.00021430881 27.17647 26
0.16759466 1.6116673 -0.00047622094 26.777779 25
0.18473114 1.6116672 -0.00035875419 26.731707 24
0.20210972 1.6116673 -0.0008511687 25.4375 23
0.21939003 1.6116993 -0.00028308298 25.82353 22
0.23712493 1.6116673 -0.0010561623 24.742857 21
0.25470832 1.6116666 -0.00058467838 25.568628 20
0.27273414 1.6116661 -0.0011374401 25.193548 19
0.29103386 1.6116806 -0.0019283433 23.361111 18
0.30884978 1.6116891 -0.00054138683 26.041666 17
0.32733309 1.6116673 -0.00064428005 27.631578 16
0.34588501 1.6116666 -0.00031115522 27.24 15
0.36499223 1.611666 -0.00083707797 24.5 14
0.38419446 1.6116658 -0.00091435749 22.89855 13
0.40372741 1.6116668 -0.0011216287 24.73913 12
0.42326206 1.6116889 -0.00066176173 23.381443 11
0.44351959 1.6116668 -0.0011306369 24.130434 10
0.46372959 1.6116651 -0.00078580098 21.557692 9
0.48468378 1.6116657 -0.0012457932 21.783783 8
0.50551057 1.6116856 -0.00072774448 21.045046 7
0.52731758 1.6116664 -0.0013057158 22.603773 6
0.54886723 1.6116886 -0.0006661262 22.67347 5
0.55024999 1.6116667 -0.0030609251 22.5 5
0.57146037 1.6116661 -0.0010699485 21.233334 4
0.59433621 1.6116662 -0.0011362659 20.135593 3
0.61757952 1.6116902 -0.00098857656 19.913044 2
0.64131033 1.6116652 -0.00078172138 18.379999 1
-0.61752599 1.621683 -0.00090656994 20.086956 68
-0.59455657 1.6216662 -0.0014893038 21.170732 67
-0.57144815 1.6216866 -0.001049678 20.473684 66
-0.54884207 1.6216798 -0.00062244921 17.192982 65
-0.52729112 1.6216662 -0.0012583067 19.1 64
-0.50545335 1.6216661 -0.00061922107 20.857143 63
-0.48460934 1.6216805 -0.0010999669 23.148148 62
-0.4637534 1.621677 -0.00083552487 24.704226 61
-0.44354266 1.6216661 -0.0011801022 23.422222 60
-0.42331839 1.6216753 -0.00078857364 24.343435 59
-0.4038496 1.6216805 -0.0014099777 24.851852 58
-0.38419965 1.6216764 -0.00092728669 24.108109 57
-0.36497876 1.6216826 -0.00080204639 25.659575 56
-0.34593248 1.6216662 -0.00044179507 27.317074 55
-0.32724252 1.6216663 -0.00038123637 26.952381 54
-0.30876818 1.6216662 -0.00029041659 25.722221 53
-0.2906954 1.6216664 -0.00082195987 25.6 52
-0.27270558 1.6216667 -0.0010373689 25.272728 51
-0.25467795 1.6216666 -0.00047104355 25.285715 50
-0.23713183 1.6216667 -0.0010838866 26 49
-0.21935938 1.6216666 -0.00015003004 24.142857 48
-0.20209014 1.6216667 -0.00075947045 24 47
-0.1847031 1.6216668 -0.00021510126 24.857143 46
-0.16757047 1.6216667 -0.00033943652 25 45
0.049823847 1.6216667 -0.00069533585 26 32
0.083146594 1.6216667 -0.00036971568 28 30
0.099929221 1.6216667 -0.00076292752 28.4 29
0.11675084 1.6216667 -0.00085918902 29 28
0.1336062 1.6216668 -0.00065730809 29.333334 27
0.1505235 1.6216666 -0.00036785085 26.714285 26
0.16759074 1.6216661 -0.00045395375 25.302326 25
0.18472351 1.6216661 -0.00031952973 26.680851 24
0.20210829 1.6216663 -0.00084452378 26.173914 23
0.21938172 1.6216661 -0.00024704379 25.454546 22
0.23715708 1.6216663 -0.001185136 25.391304 21
0.25474852 1.6216661 -0.00073447073 25.681818 20
0.27276123 1.6216806 -0.0012319265 22.679245 19
0.29085985 1.6216754 -0.0013593069 24.209524 18
0.30882883 1.6216782 -0.00047699313 26.6875 17
0.32728806 1.6216661 -0.00051337859 27.434782 16
0.34591079 1.6216661 -0.00038163509 26.8125 15
0.36501929 1.6216661 -0.00090768741 25.879999 14
0.38420773 1.6216662 -0.00094720803 23.209877 13
0.40381521 1.6216662 -0.0013286169 23.371429 12
0.4232555 1.6216671 -0.00064717908 22.860214 11
0.44354773 1.6216661 -0.0011909547 23.692308 10
0.46380639 1.6216671 -0.0009434034 21.526882 9
0.48466486 1.6216789 -0.0012088723 23.299999 8
0.50554067 1.6216755 -0.00078426977 21.085106 7
0.52735573 1.6216661 -0.0013742248 21.121212 6
0.54885095 1.6216673 -0.00063792185 20.765957 5
0.55007142 1.6216668 -0.0027516622 21.428572 5
0.57142562 1.6216661 -0.0010123015 20.068966 4
0.59439027 1.6216661 -0.001222736 19.419355 3
0.61753422 1.6216673 -0.00091855769 19.574469 2
0.64130569 1.6216754 -0.00077474501 18.990099 1
-0.61732745 1.6316673 -0.00060083519 18.307692 68
-0.59416437 1.6316671 -0.00086148933 19 67
-0.57154071 1.6316671 -0.0012035957 19.352942 66
-0.5488404 1.6316673 -0.0006195521 17.404255 65
-0.52727908 1.6316671 -0.0012364422 19.25 64
-0.50534809 1.6316673 -0.00042122099 18.744186 63
-0.4846856 1.6316673 -0.0012494819 22.530613 62
-0.46372032 1.6316675 -0.00076782593 22.608696 61
-0.44358453 1.6316675 -0.001269888 22.135593 60
-0.42333376 1.6316676 -0.00082318502 22.388889 59
-0.40376276 1.6316674 -0.0012054262 23.925926 58
-0.38415921 1.6316675 -0.00082705176 23.121212 57
-0.36492535 1.6316673 -0.00066300383 25.574469 56
-0.34591156 1.6316673 -0.00038424195 25.866667 55
-0.32728639 1.6316663 -0.00050880638 26.222221 54
-0.30883169 1.6316671 -0.00048591068 25.828571 53
-0.29061747 1.6316665 -0.00056694733 26 52
-0.27267423 1.6316664 -0.00092813664 24.5 51
-0.25469643 1.6316663 -0.00054003589 24.714285 50
-0.23708346 1.6316665 -0.00088982581 26.4 49
-0.21932724 1.6316664 -1.0836126e-05 26.200001 48
-0.20209014 1.6316667 -0.00075947045 26 47
-0.18470308 1.6316665 -0.00021510124 25.6 46
-0.16757047 1.6316665 -0.00033943652 25.200001 45
-0.15048994 1.6316667 -0.00015621186 24 44
0.033189438 1.6316667 -0.00042067765 26 33
0.049823847 1.6316667 -0.00069533585 28 32
0.066477939 1.6316667 -0.00067852734 30 31
0.083190173 1.6316667 -0.00086783175 28 30
0.11675084 1.6316667 -0.00085918902 24 28
0.1336062 1.6316665 -0.00065730809 26.4 27
0.15050229 1.6318444 -0.00023418407 28.157894 26
0.16761619 1.6317855 -0.00059860729 24.175438 25
0.18472852 1.6317573 -0.00034598613 24.746666 24
0.20214963 1.6318864 -0.0010389315 24.742857 23
0.21941634 1.6317519 -0.00039629647 25.362637 22
0.23710477 1.6316671 -0.00097544119 25.529411 21
0.25474799 1.6318272 -0.00073264126 24.75 20
0.27265289 1.6316674 -0.00085419521 23.923077 19
0.29074752 1.6316499 -0.00099196879 25.407408 18
0.30883536 1.6316488 -0.00049709808 27.333334 17
0.3273128 1.6316495 -0.00058512163 27.471699 16
0.34593457 1.6316544 -0.00044688664 25.666666 15
0.36493811 1.6318399 -0.00069606822 26.615385 14
0.38417932 1.6317711 -0.00087694265 24 13
0.40367991 1.6316673 -0.0010099324 24.83721 12
0.42332837 1.6316577 -0.00081049121 22.729166 11
0.44359887 1.6317976 -0.0013006137 23.254238 10
0.46369866 1.6317306 -0.00072248239 23.345795 9
0.48458213 1.631653 -0.0010466651 22.953846 8
0.50553 1.631659 -0.00076444721 21.541285 7
0.52723962 1.63176 -0.0011647468 21.518072 6
0.54891735 1.6316584 -0.00075295026 20.854368 5
0.55000001 1.6325194 -0.0026279571 21.333334 5
0.57144541 1.6317598 -0.0010446981 18.273973 4
0.59435201 1.6317728 -0.0011614683 19.205479 3
0.61760914 1.6317407 -0.0010341544 18.282608 2
0.64133018 1.6317377 -0.00081108185 19.895834 1
-0.61749256 1.6416665 -0.00085510284 17.764706 68
-0.59428245 1.6416665 -0.001050627 19.5 67
-0.57134211 1.6416665 -0.00087282911 20.4 66
-0.54902869 1.6416675 -0.00094589812 21.461538 65
-0.52725255 1.6416665 -0.0011887363 21.878788 64
-0.50555247 1.6416672 -0.00080579362 18.625 63
-0.48463458 1.6416667 -0.0011494686 23.049999 62
-0.46374786 1.641668 -0.00082427543 20 61
-0.44344193 1.6416665 -0.00096407364 22.969696 60
-0.42330968 1.6416681 -0.00076902012 21.223881 59
-0.40378395 1.6416665 -0.001255497 25.3125 58
-0.38422367 1.6416678 -0.00098664977 20.950819 57
-0.36491632 1.6416669 -0.00063952716 20.363636 56
-0.34593102 1.6416671 -0.00043781011 24.73913 55
-0.32724243 1.6416665 -0.00038123643 28.714285 54
-0.30879638 1.6416665 -0.0003772194 26.428572 53
-0.29073784 1.6416665 -0.00096071674 26.235294 52
-0.27265546 1.6416665 -0.00086259726 25.636364 51
-0.25471878 1.6416665 -0.00062355294 24.947369 50
-0.23708345 1.6416665 -0.00088982581 24.333334 49
-0.21934046 1.6416665 -6.8151268e-05 24.117647 48
-0.20209014 1.6416667 -0.00075947045 25 47
-0.18470308 1.6416667 -0.00021510124 29 46
-0.16757047 1.6416667 -0.00033943652 26 45
-0.15048994 1.6416667 -0.00015621186 26.5 44
0.066477939 1.6416667 -0.00067852734 30 31
0.083164021 1.6416667 -0.00056896207 26.799999 30
0.099929221 1.6416667 -0.00076292752 27 29
0.11675084 1.6426843 -0.00085918902 28 28
0.1336062 1.6421028 -0.00065730803 27.142857 27
0.15051283 1.6416667 -0.0003007472 25.804878 26
0.16759388 1.6416675 -0.00047201233 24.461538 25
0.18475224 1.6417142 -0.00046794536 24.454546 24
0.20211101 1.6416667 -0.00085728167 26.4 23
0.21944816 1.6417062 -0.00053455343 23.75 22
0.22000214 1.6416667 -0.0029339076 26 22
0.23716593 1.6417363 -0.0012206105 21.09091 21
0.25477746 1.6416675 -0.000842546 23.615385 20
0.27270174 1.6416667 -0.0010242615 23.9 19
0.29069215 1.6417272 -0.00081070978 24.627451 18
0.3088057 1.6416677 -0.00040582058 26.350878 17
0.3273364 1.6417203 -0.00065371778 26.793104 16
0.34601569 1.6417142 -0.00066994748 24.939394 15
0.36490223 1.6416665 -0.00060270232 27.333334 14
0.38422367 1.6417179 -0.00098661159 24.655737 13
0.40382078 1.6416665 -0.0013417685 25.277779 12
0.42337385 1.6416682 -0.0009132147 23.287672 11
0.44348511 1.6416676 -0.0010567533 23.392857 10
0.46369937 1.6417015 -0.00072434585 22.977777 9
0.48477229 1.6417179 -0.0014196923 21.573771 8
0.50560153 1.6416982 -0.0008985204 22.632652 7
0.52730101 1.6417085 -0.0012755292 18.263159 6
0.54890352 1.6416947 -0.00072904123 21.761467 5
0.55009997 1.6416667 -0.0028011445 21.799999 5
0.57157242 1.6417221 -0.0012566817 19.321428 4
0.59443229 1.6417241 -0.0012901142 19.444445 3
0.61753017 1.6417142 -0.00091261248 19.878788 2
0.64138067 1.6417052 -0.00088585849 19.756098 1
-0.61755896 1.6516656 -0.00095713348 18 68
-0.59432018 1.6516658 -0.0011109104 20.411764 67
-0.57149285 1.6516659 -0.0011238975 18.129032 66
-0.54883647 1.6516654 -0.00061280432 18.307692 65
-0.52725893 1.6516658 -0.0012004295 19.17647 64
-0.50540763 1.6516654 -0.00053322018 19.6 63
-0.48469818 1.6516654 -0.0012742118 23.32 62
-0.46369809 1.6516654 -0.00072191266 22.575001 61
-0.44353327 1.6517004 -0.001159969 21.51111 60
-0.42329508 1.6516652 -0.00073636632 22.210526 59
-0.40375867 1.6516657 -0.0011958642 24.341463 58
-0.38422874 1.6516653 -0.00099924207 22.485714 57
-0.36492613 1.6516657 -0.00066499138 22.450001 56
-0.34597245 1.6516654 -0.00055130053 25.481482 55
-0.32735202 1.6516656 -0.00069922797 26.666666 54
-0.30878785 1.6516659 -0.00035092284 26.709677 53
-0.29065645 1.6516666 -0.00069445366 26.133333 52
-0.27265546 1.6516666 -0.00086259726 26 51
-0.25469786 1.6516666 -0.00054534298 24.76923 50
-0.23710763 1.6516666 -0.00098685618 25.6 49
-0.21937546 1.6516666 -0.00021962696 27 48
-0.20209014 1.6516666 -0.00075947045 26 47
-0.18470308 1.6516666 -0.00021510124 26.799999 46
-0.16757047 1.6516666 -0.00033943649 26 45
-0.15048994 1.6516666 -0.00015621186 26 44
-0.13360615 1.6516666 -0.00065730809 24 43
0.033189438 1.6516666 -0.00042067762 26.666666 33
0.083146594 1.6516666 -0.00036971571 28 30
0.099929221 1.6516666 -0.00076292752 28 29
0.11675084 1.6518899 -0.00085918896 27.428572 28
0.13361548 1.6516666 -0.00072333007 27.333334 27
0.15054205 1.6516654 -0.00048543062 25.444445 26
0.16761626 1.651687 -0.00059932726 23.222221 25
0.18474394 1.6516844 -0.00042545205 24.952381 24
0.20212066 1.6516657 -0.00090261066 24.878048 23
0.21945712 1.6516809 -0.0005723302 20.881355 22
0.22000214 1.6516666 -0.0029339076 26 22
0.23716904 1.6516653 -0.0012331613 21.200001 21
0.25478715 1.6516653 -0.00087853218 23.96875 20
0.2726858 1.6516653 -0.00096880517 23.415384 19
0.29075584 1.6516864 -0.0010192499 23.243244 18
0.30882984 1.6516653 -0.00048014539 26.242424 17
0.32734007 1.6516654 -0.0006643738 26.538462 16
0.34596112 1.6516833 -0.00051952474 24.956522 15
0.36498064 1.6516867 -0.00080690242 25.315069 14
0.3842124 1.651683 -0.00095877505 23.536842 13
0.40375793 1.6516919 -0.001193538 24.135593 12
0.42329618 1.6516831 -0.00073840749 23.531916 11
0.44361231 1.6516873 -0.0013295941 23.887323 10
0.46380067 1.6516812 -0.00093196135 22.701754 9
0.48471817 1.6516654 -0.0013130051 21.594936 8
0.50567365 1.65168 -0.0010341319 23.338346 7
0.52743465 1.6516838 -0.0015166838 20.863636 6
0.54903764 1.6516808 -0.00096138142 22.789915 5
0.55016077 1.651666 -0.0029062997 23.428572 5
0.57149357 1.6516662 -0.001124492 19.863636 4
0.59460855 1.6516657 -0.00157202 20.243902 3
0.61760271 1.6516662 -0.001024121 17.707865 2
0.64129275 1.6516815 -0.0007553426 18.927273 1
-0.61740297 1.6616668 -0.00071696949 18.727272 68
-0.59432113 1.6616658 -0.0011124626 21.9375 67
-0.57147646 1.6616668 -0.0010968943 18.744186 66
-0.54880184 1.6616662 -0.00055279769 20.830189 65
-0.52728337 1.6616668 -0.0012440477 21.173914 64
-0.50562084 1.6616668 -0.00093455688 21.857143 63
-0.48466232 1.6616659 -0.0012037988 20.780487 62
-0.46371028 1.6616668 -0.00074710388 22.030304 61
-0.44349051 1.661666 -0.001068313 23.591837 60
-0.42326498 1.6616664 -0.00066861114 22.40909 59
-0.40383917 1.6616659 -0.0013856348 23.428572 58
-0.38420656 1.6616664 -0.00094449462 23.466667 57
-0.36499453 1.6616668 -0.00084321323 23.927273 56
-0.34591356 1.6616663 -0.0003894628 27.133333 55
-0.32727417 1.6616683 -0.00047308701 26.4 54
-0.30882624 1.6616659 -0.00046912915 26.588236 53
-0.2906706 1.6616668 -0.00074081955 26.181818 52
-0.2726447 1.6616622 -0.00082514621 26 51
-0.25472647 1.6616668 -0.0006521485 26 50
-0.2372044 1.6616666 -0.0013749779 25 49
-0.21932723 1.6616668 -1.0836126e-05 26.666666 48
-0.20209014 1.6616666 -0.00075947045 28 47
-0.1847031 1.6616666 -0.00021510126 27 46
-0.16757047 1.6616665 -0.00033943649 26 45
-0.15048994 1.6616668 -0.00015621186 25.666666 44
0.033189438 1.6616666 -0.00042067765 29 33
0.049823847 1.6616666 -0.00069533585 28 32
0.066477939 1.6616666 -0.00067852734 27 31
0.083146587 1.6616668 -0.00036971568 27.692308 30
0.099929221 1.6616668 -0.0007629274 25.142857 29
0.11675084 1.6616668 -0.00085918896 26 28
0.13361946 1.6616666 -0.00075162522 27.333334 27
0.15051194 1.6616666 -0.00029549588 25.205128 26
0.16761881 1.6616676 -0.00061427819 23.209303 25
0.18475331 1.6616675 -0.00047342814 23.68421 24
0.2021389 1.661669 -0.00098839076 25.063829 23
0.21944176 1.6616673 -0.00050562725 21.65625 22
0.22000214 1.6616666 -0.0029339076 23 22
0.23715259 1.6616683 -0.0011670544 22.457144 21
0.25478855 1.6616679 -0.00088345126 21.820225 20
0.27272394 1.6616681 -0.0011015253 22.683544 19
0.29074237 1.6616676 -0.00097525347 22.606741 18
0.30887133 1.6616679 -0.0006077289 24.808989 17
0.32736149 1.6616685 -0.00072667853 25.836065 16
0.34595904 1.6616675 -0.00051392935 25.010527 15
0.36498344 1.6616668 -0.00081410882 22.137932 14
0.38420129 1.6616675 -0.00093108264 23.55102 13
0.40375569 1.6616668 -0.00118834 24.317461 12
0.42325297 1.6616678 -0.00064122048 23.276596 11
0.44355416 1.6616668 -0.0012048967 24.953846 10
0.46368372 1.6616677 -0.00069163495 23.431034 9
0.48468739 1.6616678 -0.001252276 21.956043 8
0.505575 1.6616676 -0.00084910903 22.483871 7
0.52742368 1.6616679 -0.0014968003 21.84091 6
0.54895639 1.6616677 -0.00082058 21.704348 5
0.55023688 1.6616668 -0.0030381565 22.421053 5
0.57155043 1.6616668 -0.0012192102 20.482759 4
0.59440899 1.6616679 -0.0012527073 21.41573 3
0.61747158 1.6616678 -0.00082198187 18.307692 2
0.64138836 1.6616678 -0.00089744484 19.145834 1
-0.61753333 1.6717644 -0.00091763504 18.035715 68
-0.59442735 1.6716286 -0.0012824624 20.780487 67
-0.57135296 1.6717994 -0.0008912289 17.804878 66
-0.54896361 1.6717464 -0.00083317683 21.913044 65
-0.52730566 1.671667 -0.0012841484 22 64
-0.50552177 1.6717442 -0.0007480217 21.042253 63
-0.48468697 1.6716669 -0.0012522774 21.5 62
-0.46359515 1.6716467 -0.00051119644 18.243244 61
-0.44354859 1.6716661 -0.0011926924 21.9 60
-0.42332605 1.6717404 -0.00080592599 22.959999 59
-0.40381503 1.6716661 -0.0013286407 22.4 58
-0.38423854 1.671641 -0.0010234863 24.508474 57
-0.36495224 1.6717595 -0.00073302962 24.508474 56
-0.34592545 1.6717663 -0.0004222102 24.799999 55
-0.32728094 1.6716665 -0.00049282273 24.695652 54
-0.30878875 1.6716665 -0.00035358989 25.608696 53
-0.29068244 1.6716665 -0.00077945803 24.592592 52
-0.27266446 1.671667 -0.00089380646 26 51
-0.25471032 1.671667 -0.0005917839 24.625 50
-0.23708345 1.6716667 -0.00088982581 26 49
-0.21933594 1.6719359 -4.8311431e-05 26.153847 48
-0.20209014 1.6716666 -0.00075947045 25.5 47
-0.18470308 1.6716666 -0.00021510124 27.5 46
-0.16757047 1.6711534 -0.00033943649 26.666666 45
-0.15048994 1.6716666 -0.00015621186 26 44
-0.033189405 1.6716666 -0.00042067765 24 37
-0.016597221 1.6716666 -0.00085513591 26 36
1.688586e-08 1.6716666 -0.00099997525 30 35
0.033189438 1.6716666 -0.00042067765 30 33
0.083146587 1.671667 -0.00036971565 27.764706 30
0.099929221 1.671667 -0.0007629274 26.545454 29
0.11675084 1.6716666 -0.00085918902 27 28
0.13361135 1.6716665 -0.00069398701 28.814816 27
0.15055107 1.6716665 -0.00054268551 25.195652 26
0.16762529 1.6717377 -0.00065097032 24.346939 25
0.18475237 1.6716493 -0.00046878174 25.325842 24
0.20214663 1.6717596 -0.0010247238 23.728813 23
0.21945769 1.6717135 -0.00057493796 22.105263 22
0.22000214 1.6716666 -0.0029339076 22 22
0.23716313 1.6716671 -0.0012093125 22.487804 21
0.25480464 1.6717408 -0.00094372011 22.74468 20
0.27273148 1.6717515 -0.0011279127 21.662651 19
0.29075378 1.6717633 -0.001012346 22.986301 18
0.30883861 1.6717445 -0.00050704251 25.6 17
0.32733512 1.6716667 -0.0006498734 24.741573 16
0.34600413 1.6716667 -0.00063791272 25.40909 15
0.36505139 1.6716676 -0.00099110103 22.233767 14
0.38419041 1.6716663 -0.000904279 24.541666 13
0.40381184 1.6716672 -0.0013205223 23.753845 12
0.42327744 1.6717134 -0.00069629354 23.263159 11
0.44351807 1.6716669 -0.0011272924 23.320755 10
0.46369749 1.6716657 -0.00071980938 22 9
0.48481557 1.6717288 -0.0015038431 22.113636 8
0.50559634 1.6717259 -0.00088888465 22.379311 7
0.52737319 1.6716665 -0.0014056256 20.673914 6
0.54889894 1.6717159 -0.00072109106 22.6789 5
0.55011773 1.671667 -0.0028317177 23.411764 5
0.57164514 1.6716669 -0.0013768516 21.701149 4
0.59445667 1.6717609 -0.0013290588 21.6 3
0.61759853 1.6716663 -0.0010178047 21.072165 2
0.64136642 1.6717241 -0.00086427352 19.630253 1
-0.61739141 1.6816671 -0.00069931225 17.842106 68
-0.59411532 1.681667 -0.00078309939 18.666666 67
-0.57155877 1.6816671 -0.001233469 19.407408 66
-0.54894722 1.6816659 -0.00080477452 20.771931 65
-0.52732223 1.6816666 -0.0013141888 22.044445 64
-0.5055806 1.6816654 -0.00085887965 22.142857 63
-0.48466456 1.6816828 -0.0012083107 22.377359 62
-0.4638274 1.6816659 -0.00098719622 21.298246 61
-0.44355628 1.6816665 -0.0012094445 21.826086 60
-0.42331752 1.6816657 -0.00078670378 23.53125 59
-0.40378907 1.6816671 -0.0012675677 23.741936 58
-0.38418588 1.6816818 -0.00089327799 22.714285 57
-0.36501095 1.6816669 -0.0008858603 22.487804 56
-0.34594509 1.6816658 -0.00047598928 24.786884 55
-0.32727045 1.6816671 -0.00046227485 25.885714 54
-0.308824 1.681667 -0.00046213419 24.049999 53
-0.29072988 1.6816671 -0.00093475421 23.692308 52
-0.27266046 1.6816669 -0.0008800744 24.133333 51
-0.25469786 1.6816667 -0.00054534303 25.846153 50
-0.23711801 1.6816665 -0.0010284407 25.714285 49
-0.21936813 1.6816666 -0.00018799199 25.454546 48
-0.20209014 1.6816666 -0.00075947045 26 47
-0.18470308 1.6816666 -0.00021510124 26 46
-0.16757047 1.6816666 -0.00033943652 25 45
-0.15048994 1.6816666 -0.00015621186 26 44
0.033189438 1.6816666 -0.00042067765 27 33
0.049823847 1.6816666 -0.00069533585 30 32
0.066477939 1.6816667 -0.00067852734 28.666666 31
0.08314658 1.681667 -0.00036971562 27.363636 30
0.099929221 1.6816666 -0.00076292746 28.799999 29
0.11676022 1.6816667 -0.00093553786 28 28
0.13363498 1.6816975 -0.00086220237 27.586206 27
0.15053457 1.6816782 -0.00043839746 25.971428 26
0.16761066 1.6816655 -0.00056780735 24.434782 25
0.18478052 1.6816783 -0.00061344827 24.115942 24
0.20212957 1.6816671 -0.00094451907 25.135136 23
0.2194604 1.6816759 -0.00058706931 23.634409 22
0.22000213 1.6816667 -0.0029339076 24.666666 22
0.23714393 1.6816795 -0.0011324009 22.5625 21
0.25477862 1.6816654 -0.00084667007 22.944445 20
0.27266386 1.6816665 -0.00089234614 23.787233 19
0.2907362 1.6816783 -0.00095501036 22.492754 18
0.30889857 1.6816763 -0.00069160125 23.674419 17
0.32741317 1.6816655 -0.00087651645 24.757576 16
0.34597865 1.6816761 -0.00056772685 24.943821 15
0.36500463 1.6816767 -0.00086939445 22.683544 14
0.38430434 1.6816761 -0.0011864398 22.629213 13
0.40383992 1.6816765 -0.0013866638 23.097561 12
0.42345443 1.6816757 -0.0010940352 22.061224 11
0.44361362 1.6816828 -0.0013324826 23.320755 10
0.46374267 1.6816666 -0.00081288576 22.556702 9
0.48473588 1.6816792 -0.0013482327 22.030769 8
0.50556898 1.6816756 -0.00083742605 22.18 7
0.5273006 1.6816775 -0.0012747372 22.657534 6
0.54891384 1.6816759 -0.00074689189 22.150537 5
0.55011111 1.6816665 -0.0028203875 22.444445 5
0.57174677 1.6816758 -0.0015459028 21.936842 4
0.59441006 1.6816775 -0.0012544014 19.397261 3
0.61763251 1.6816758 -0.001070047 20.694736 2
0.64158434 1.6816753 -0.0011876387 19.962265 1
-0.61749792 1.6916516 -0.00086304551 17.806452 68
-0.59441566 1.691666 -0.0012637721 19.161291 67
-0.57152969 1.6916659 -0.001185015 21.236841 66
-0.55049998 1.6916666 -0.0034939528 22 65
-0.54902285 1.6916658 -0.00093574513 20.344828 65
-0.52735388 1.6916659 -0.001371217 21.704918 64
-0.50555348 1.6916568 -0.00080841512 23.571428 63
-0.48466662 1.6916555 -0.0012116325 22.325581 62
-0.46381664 1.6916579 -0.00096425397 23.660715 61
-0.44349009 1.6916659 -0.0010673292 22.773333 60
-0.42330715 1.6916566 -0.00076290994 22.479166 59
-0.40387097 1.6916659 -0.001460146 22.428572 58
-0.38417193 1.6916558 -0.00085866003 23.40909 57
-0.3649953 1.6916659 -0.0008451296 25.15493 56
-0.34595355 1.6916538 -0.00049909519 26.297297 55
-0.32732031 1.6916659 -0.00060718862 25.381819 54
-0.30883265 1.6916525 -0.00048875174 22.477612 53
-0.2907311 1.691666 -0.00093884103 24.055555 52
-0.27265459 1.6916344 -0.00085947663 24.571428 51
-0.25473768 1.6916665 -0.0006939419 26 50
-0.23711032 1.6916666 -0.00099763728 26 49
-0.21935457 1.6916392 -0.00012894 24.484848 48
-0.20209014 1.6916666 -0.00075947045 26 47
-0.18471779 1.6916665 -0.00029061118 26.615385 46
-0.16757047 1.6916666 -0.00033943649 26.666666 45
-0.15048994 1.6916666 -0.00015621186 26 44
-0.033189405 1.6916666 -0.00042067765 24 37
0.033206888 1.6916666 -0.00092037325 30 33
0.049823847 1.6916666 -0.00069533585 27.333334 32
0.066477947 1.6916665 -0.00067852723 26.714285 31
0.083156489 1.6916459 -0.00048292393 27.545454 30
0.099929258 1.691666 -0.0007629277 27.806452 29
0.11675641 1.6916661 -0.00090430438 27 28
0.13362482 1.6916659 -0.00079062238 27.076923 27
0.15052897 1.6916658 -0.00040312632 27 26
0.16762453 1.6916577 -0.00064663682 24.055046 25
0.18479872 1.6916593 -0.00070592004 23.26087 24
0.20216028 1.6916555 -0.0010893018 24.209303 23
0.21942754 1.6916596 -0.00044388406 24.444445 22
0.23714302 1.6916659 -0.0011286681 24.338461 21
0.25483283 1.6916658 -0.0010486934 22.90196 20
0.27270129 1.6916658 -0.0010226405 23.617977 19
0.29077557 1.6916556 -0.0010835672 23.195402 18
0.30889755 1.6916658 -0.00068838807 23.919355 17
0.32742548 1.6916658 -0.0009126818 24.245901 16
0.34604609 1.6916596 -0.00075359299 24.055555 15
0.36512515 1.6916593 -0.0011831591 22.15942 14
0.38428807 1.6916658 -0.0011463786 22.844444 13
0.40384376 1.6916658 -0.0013959064 22.647058 12
0.42347422 1.6916666 -0.0011378482 21.85 11
0.44362488 1.6916658 -0.0013575439 20.120689 10
0.46380964 1.6916593 -0.00095012697 22.072464 9
0.48467964 1.6916567 -0.0012367335 22.247423 8
0.50562412 1.6916592 -0.00094114343 22.597015 7
0.52738827 1.6916658 -0.0014328095 22.631578 6
0.54887801 1.6916589 -0.0006844938 21.622047 5
0.5501765 1.6916664 -0.0029335995 21.529411 5
0.57174098 1.6916658 -0.0015367569 21.959459 4
0.59460884 1.6916658 -0.0015724532 19.663158 3
0.61764985 1.6916598 -0.0010971164 20.533333 2
0.64165121 1.6916674 -0.0012864618 20.988235 1
-0.6154421 2.1043117e-16 0.0023022413 21 68
-0.59227306 2.1046168e-16 0.0021648726 22 67
-0.56877375 2.1018706e-16 0.0034015893 23.333334 66
-0.54749995 2.1056441e-16 0.0017021814 23.333334 65
-0.5252912 2.1042067e-16 0.0023495674 24 64
-0.50421244 2.1056172e-16 0.0017143011 24 63
-0.48349988 2.1070302e-16 0.0010779619 26 62
-0.46160477 2.1014969e-16 0.0035699129 26 61
-0.44248128 2.1069908e-16 0.0010956943 23 60
-0.42259938 2.1075891e-16 0.00082625152 24 59
-0.4030391 2.108315e-16 0.00049926044 22 58
-0.38347229 2.1074857e-16 0.00087276293 24 57
-0.3641018 2.1061325e-16 0.0014822801 27.333334 56
-0.34509832 2.1053155e-16 0.0018501699 23 55
-0.32621929 2.103672e-16 0.0025903899 22 54
-0.30798692 2.1047304e-16 0.0021136918 24 53
-0.29003271 2.1064357e-16 0.0013457059 22 52
-0.2896429 2.1036046e-16 0.0026207685 25.333334 52
-0.27184734 2.1050814e-16 0.0019556554 25 51
-0.25416028 2.10618e-16 0.0014608472 27 50
-0.23647863 2.1060132e-16 0.0015359342 26 49
-0.21859618 2.1024164e-16 0.0031558841 25 48
-0.20131047 2.1029655e-16 0.0029085695 26 47
-0.18432148 2.1055422e-16 0.0017481267 27 46
-0.16713634 2.1047109e-16 0.0021225333 29 45
-0.15007277 2.1039222e-16 0.0024776775 28 44
-0.1498642 2.1009981e-16 0.0037945628 32 44
-0.13322343 2.1048366e-16 0.0020658791 27 43
-0.11638521 2.1047199e-16 0.0021184206 27.5 42
-0.099563345 2.1033887e-16 0.0027178943 24 41
-0.082841516 2.1025028e-16 0.0031169474 26 40
-0.066233754 2.1031778e-16 0.0028129339 26 39
-0.049640637 2.1032069e-16 0.0027998805 28 38
-0.03309343 2.1042554e-16 0.0023276478 26.5 37
-0.016544864 2.1046623e-16 0.0021443635 25 36
1.6828155e-08 2.1044277e-16 0.0022499829 25.5 35
0.016553625 2.1057723e-16 0.0016444444 28 34
0.033110917 2.105365e-16 0.0018279522 28 33
0.04970609 2.1059785e-16 0.0015516102 26.5 32
0.06633842 2.1065003e-16 0.001316604 26.5 31
0.083015859 2.1069267e-16 0.0011245579 25.5 30
