# .PCD v0.7 - Point Cloud Data file format
VERSION 0.7
FIELDS x y z intensities index
SIZE 4 4 4 4 4
TYPE F F F F F
COUNT 1 1 1 1 1
WIDTH 1024
HEIGHT 1
VIEWPOINT 0 0 0 1 0 0 0
POINTS 1024
DATA ascii
0.28934482 1.2116685 0.0035958185 20.764706 18
0.29005936 1.2117215 0.00125877 22.363636 18
0.30753312 1.2116728 0.003511155 23.428572 17
0.32592055 1.2116727 0.0034576575 24.979311 16
0.34449667 1.2116686 0.0035027158 24.717241 15
0.36338228 1.2116728 0.0033558372 24.315069 14
0.38240397 1.2116728 0.0035167499 25.136986 13
0.40199852 1.2116728 0.0029507924 24 12
0.42176801 1.2116685 0.0026933823 22.20438 11
0.44173443 1.2116728 0.0026973183 24.054794 10
0.46171916 1.2116727 0.0033359474 25.424658 9
0.48258635 1.2116728 0.0028721809 23.55102 8
0.50365019 1.2116728 0.0027713431 22.957747 7
0.52515632 1.2116728 0.0025925061 22.736111 6
0.54693079 1.2116728 0.0026883162 23.313869 5
0.56890982 1.2116681 0.0031760165 22.508772 4
0.57037979 1.2116858 0.00072867278 23.096775 4
0.58980018 1.2116666 0.0061224224 22 3
0.59197867 1.2116728 0.0026360406 23 3
0.61523479 1.2116727 0.0026211855 23.507042 2
0.6388135 1.2116735 0.0029202197 22.324787 1
0.6402759 1.2116663 0.00075198425 22.857143 1
-0.61425889 1.2217009 0.0041240193 20.744444 68
-0.59152496 1.2217139 0.0033615108 21.022556 67
-0.58947289 1.2216672 0.0066457149 20.851065 67
-0.57029444 1.2216665 0.00087088667 23.071428 66
-0.56841385 1.2217075 0.0040010223 24.352942 66
-0.54653168 1.2217022 0.0033794662 26.586206 65
-0.52473801 1.2217007 0.0033473768 28.607735 64
-0.50336206 1.221702 0.0033136616 26.091429 63
-0.48232508 1.2217009 0.0033847548 27.188889 62
-0.461808 1.221702 0.0031538538 28.674286 61
-0.441605 1.2217014 0.0029745421 28.943821 60
-0.4398047 1.2216666 0.0068356916 30 60
-0.42152727 1.2217025 0.0032342265 26.404625 59
-0.4020083 1.2217008 0.0029276381 28.651934 58
-0.38253996 1.2217009 0.0031804373 29.355556 57
-0.36336878 1.2217009 0.0033909073 29.333334 56
-0.3445608 1.2217016 0.0033260412 29.853107 55
-0.32585579 1.2217008 0.0036455973 30.685083 54
-0.30754426 1.2217009 0.0034768458 29.022223 53
-0.29003268 1.2216665 0.0013457061 27.799999 52
-0.28927183 1.2217029 0.0038343086 29.672514 52
-0.27148613 1.2217008 0.0032156287 27.911602 51
-0.25362265 1.2217008 0.0034673964 25.436464 50
-0.23551095 1.2216666 0.0054170908 10 49
-0.049457461 1.2216666 0.0062950971 18 38
-0.03292184 1.2216665 0.0072413203 17.666666 37
-0.016474275 1.2217008 0.0061879638 27.668509 36
1.6782433e-08 1.2217008 0.0048232046 29.281769 35
0.016500745 1.2217008 0.0046743904 28.917128 34
0.033007968 1.2217008 0.0047750436 29.359116 33
0.049543098 1.2217008 0.0046619591 28.76243 32
0.066134863 1.2217008 0.0042265742 27.790054 31
0.082778275 1.2217008 0.0038406812 27.403315 30
0.099456199 1.2217008 0.0037371467 27.270718 29
0.11618318 1.2217007 0.0037635022 26.497238 28
0.132981 1.2217007 0.0037906663 27.027624 27
0.14978318 1.2216655 0.0043061757 27.928057 26
0.15005414 1.2218199 0.0025952628 28.619047 26
0.1668212 1.2217008 0.0039098617 29.381216 25
0.18393458 1.2217008 0.0037385183 27.513813 24
0.20110312 1.2217008 0.0038826808 28.961327 23
0.21849768 1.2217011 0.0035818203 27.128492 22
0.23599634 1.2217009 0.0034711226 25.1 21
0.25366578 1.2217008 0.0033072967 24.022099 20
0.27153343 1.2217008 0.0030509939 23.303867 19
0.28932777 1.2217035 0.0036510662 24.226191 18
0.29016769 1.2216665 0.00090433832 24.461538 18
0.30753362 1.2217008 0.0035096158 25.61326 17
0.3259511 1.2217008 0.0033687474 25.392265 16
0.34454682 1.2217014 0.0033652782 25.168539 15
0.36328253 1.2217011 0.003615424 26.201117 14
0.38253754 1.2217008 0.0031864836 24.508287 13
0.40210384 1.221701 0.0027028034 21.921787 12
0.42204311 1.2217047 0.0020760919 23.067484 11
0.44177139 1.2217014 0.0026181575 23.067415 10
0.46196172 1.2217027 0.0028383166 24.267443 9
0.48281029 1.221702 0.0024323736 23.188572 8
0.50384182 1.2217017 0.0024116163 22.90909 7
0.52542078 1.2217027 0.0021156443 24.255814 6
0.54705882 1.2217032 0.0024663201 23.470589 5
0.56905168 1.2217139 0.0029397097 23.067669 4
0.57033098 1.2216671 0.00080965547 23.523809 4
0.59212297 1.2217009 0.0024051929 22.266666 3
0.61549377 1.2217011 0.0022226083 22.290503 2
0.63879323 1.2217132 0.0029504502 22.414814 1
0.6402759 1.2216667 0.00075198396 23.161291 1
-0.61425227 1.2317029 0.0041341963 20.592178 68
-0.59157366 1.23171 0.0032838443 21.111111 67
-0.58947611 1.2316667 0.0066406983 21.888889 67
-0.57031107 1.2316667 0.00084305461 23.727272 66
-0.56833178 1.2317067 0.0041375631 23.873417 66
-0.54664123 1.2316698 0.0031895773 26.757063 65
-0.52484679 1.2317028 0.0031512727 27.655556 64
-0.50334835 1.2317034 0.003339693 26.863636 63
-0.48244533 1.2317029 0.0031487548 26.067039 62
-0.46177354 1.2317038 0.0032237833 29.229885 61
-0.45985132 1.2316667 0.0071650269 30 61
-0.44153869 1.231703 0.0031171038 29.303371 60
-0.43994561 1.2316667 0.0065335752 32 60
-0.42160931 1.2317035 0.0030501045 25.817142 59
-0.40198195 1.2317028 0.0029897124 28.677778 58
-0.38251096 1.2317029 0.0032520331 30.905027 57
-0.36338866 1.2317028 0.0033390375 29.755556 56
-0.34447131 1.2317029 0.0035720328 30.681564 55
-0.32582304 1.2317028 0.0037407603 31.188889 54
-0.30754599 1.2317028 0.0034715622 29.177778 53
-0.29012409 1.2316667 0.0010468633 29 52
-0.28934634 1.2317055 0.0035906653 29.560976 52
-0.27139884 1.2317028 0.0035203497 29.822222 51
-0.25362539 1.2317028 0.0034570743 27.144444 50
-0.23599224 1.2317111 0.0034869676 25.280575 49
-0.21821006 1.2317654 0.0048285513 16.200001 48
-0.016477285 1.2317028 0.0060160141 27.799999 36
1.6783742e-08 1.2317028 0.0047500012 29.711111 35
0.016499238 1.2317028 0.0047606579 29.744444 34
0.033009294 1.2317028 0.0047372831 29.555555 33
0.049548503 1.2317028 0.0045585679 28.611111 32
0.066133767 1.2317028 0.0042427424 27.98889 31
0.082786389 1.2317028 0.0037478497 26.233334 30
0.099477977 1.2317028 0.0035300914 27.044445 29
0.11619361 1.2317028 0.0036789021 26.977777 28
0.13296825 1.2317028 0.0038813909 28.6 27
0.1497931 1.2317102 0.004243515 27.18881 26
0.15006289 1.2316667 0.0025399663 28.864864 26
0.16686139 1.2317028 0.0036817961 26.211111 25
0.18396519 1.2317028 0.0035805167 26.966667 24
0.20112424 1.2317028 0.0037834863 27.111111 23
0.21846484 1.2317028 0.0037242558 27.5 22
0.23600428 1.2317028 0.0034387808 25.944445 21
0.25364864 1.2317028 0.0033712136 25.022223 20
0.27142331 1.2317028 0.003434906 24.844444 19
0.28929558 1.2317058 0.0037569876 24.625767 18
0.29010159 1.2316667 0.0011206949 25.764706 18
0.30753258 1.2317029 0.0035128151 26 17
0.3259117 1.2317028 0.0034833765 27.344444 16
0.34457636 1.2317033 0.0032835884 26.440678 15
0.36341283 1.231703 0.003276004 25.898876 14
0.38262463 1.231703 0.0029702447 24.101124 13
0.40197104 1.2317028 0.0030152926 24.200001 12
0.42176133 1.2317053 0.0027087319 22.557575 11
0.43994564 1.2316667 0.0065335752 22 10
0.44172132 1.2317029 0.0027260934 23.452515 10
0.46201783 1.2317042 0.0027236545 23.076023 9
0.48276934 1.2317033 0.0025127165 23.00565 8
0.50382066 1.2317046 0.0024509476 22.781065 7
0.52537924 1.2317034 0.0021905343 24.079546 6
0.54695904 1.2317042 0.0026391046 24.725145 5
0.56896102 1.2317153 0.0030907278 22.288 4
0.57025659 1.2316667 0.0009334202 22.468084 4
0.58980018 1.2316667 0.0061224224 22 3
0.59211975 1.2317035 0.0024104398 21.382856 3
0.61541867 1.2317055 0.0023380567 21.109756 2
0.63896334 1.2317107 0.0026981446 21.673759 1
0.6402759 1.2316667 0.00075198413 22.48 1
-0.61420727 1.2416776 0.0042032287 20.706667 68
-0.59168845 1.2416801 0.0030999242 19.982906 67
-0.58947271 1.2416662 0.0066462471 22.764706 67
-0.57037246 1.2416667 0.00074077107 22.625 66
-0.56836212 1.2416786 0.0040872865 22.42963 66
-0.54662526 1.241678 0.0032177093 26.013889 65
-0.52481437 1.2416779 0.0032092796 25.619047 64
-0.50341123 1.2416781 0.0032208271 26.993008 63
-0.48244426 1.2416776 0.0031511127 27.413334 62
-0.46185648 1.2416781 0.0030544787 29.972029 61
-0.45985132 1.2416667 0.0071650269 30 61
-0.44166702 1.2416778 0.0028414377 28.778524 60
-0.43973428 1.2416667 0.0069867494 32 60
-0.42152569 1.2416776 0.0032380335 28.68 59
-0.40203366 1.2416776 0.0028680048 29.626667 58
-0.38255501 1.2416776 0.0031426421 30.344372 57
-0.36334223 1.2416775 0.0034599684 29.986841 56
-0.34455734 1.2416778 0.0033358715 30.540541 55
-0.32592157 1.2416776 0.0034545013 30.278145 54
-0.30754939 1.2416775 0.0034609998 29.5 53
-0.2900652 1.2416667 0.0012394506 27.111111 52
-0.28935853 1.2416787 0.0035508939 28.35821 52
-0.27145547 1.2416776 0.003322724 26.834436 51
-0.25360182 1.2416775 0.0035452 27.144737 50
-0.23587859 1.2416775 0.0039425003 26.078947 49
-0.2184763 1.2416787 0.0036757838 27.343283 48
-0.20107253 1.2416806 0.0040273857 28.867256 47
-0.065850094 1.2416667 0.0082995417 26.666666 39
-0.049406603 1.2416662 0.0072651915 27.6 38
-0.032968886 1.2416835 0.0058941506 24.285715 37
-0.016496193 1.2416775 0.0049334331 27.75 36
1.6792274e-08 1.2416775 0.0042697401 29.263159 35
0.016503451 1.2416775 0.0045190272 30.06579 34
0.033015151 1.2416775 0.0045696958 28.776316 33
0.049550772 1.2416775 0.004514622 28.43421 32
0.066135541 1.2416775 0.0042173653 28.105263 31
0.082786538 1.2416775 0.0037461033 25.973684 30
0.099467099 1.2416775 0.0036339043 26.657894 29
0.11619435 1.2416775 0.003672519 26.763159 28
0.13299181 1.2416775 0.003714178 26.144737 27
0.14981255 1.2416673 0.0041206889 27.415094 26
0.15003082 1.2416985 0.0027424991 28.782608 26
0.16687813 1.2416775 0.003586771 26.789474 25
0.18393596 1.2416775 0.0037307809 26.973684 24
0.20111866 1.2416775 0.0038095086 27.605263 23
0.21854895 1.2416775 0.0033610074 27.618422 22
0.23611748 1.2416775 0.0029849894 26.026316 21
0.25366324 1.2416775 0.0033164264 25.776316 20
0.27152282 1.2416775 0.0030876459 24.947369 19
0.28934509 1.2416781 0.0035950276 25.253521 18
0.29003277 1.2416667 0.0013457061 26.200001 18
0.30754992 1.2416776 0.0034594373 26.794703 17
0.32597494 1.2416775 0.003299532 27.171053 16
0.34460831 1.2416778 0.0031962011 26.094595 15
0.36346775 1.2416776 0.0031330355 25.973511 14
0.38267541 1.2416776 0.0028446161 24.893333 13
0.40196711 1.2416775 0.0030245762 25.18421 12
0.42173228 1.241678 0.0027739101 23.972221 11
0.43994564 1.2416667 0.0065335752 22 10
0.44182622 1.2416776 0.0025002395 23.019867 10
0.46214059 1.2416782 0.0024720838 22.914286 9
0.48288611 1.2416776 0.0022838733 22.906666 8
0.50387263 1.2416782 0.0023530251 22.099291 7
0.52540469 1.2416779 0.0021442885 23.510204 6
0.54714555 1.2416782 0.0023163836 24.241135 5
0.56899756 1.2416817 0.0030298813 23.650486 4
0.57039857 1.241666 0.00069716142 23.72093 4
0.58980018 1.2416667 0.0061224224 22 3
0.59224272 1.2416779 0.0022133186 21.767124 3
0.61550558 1.2416785 0.002204312 23.124088 2
0.63899446 1.2416806 0.0026521508 22.58407 1
0.6402759 1.2416667 0.00075198413 22.333334 1
-0.61416405 1.2517095 0.0042700698 19.374302 68
-0.59142959 1.2516645 0.0035144102 19.287672 67
-0.58955783 1.2518976 0.0065101269 20.228571 67
-0.57027596 1.2516669 0.00090150215 22.416666 66
-0.56839228 1.2517176 0.004036909 22.223684 66
-0.54666179 1.2517138 0.0031543402 25.792683 65
-0.5248614 1.2517103 0.0031247661 25.40909 64
-0.50344014 1.2517122 0.0031666928 26.934912 63
-0.48251927 1.2517091 0.0030035973 27.966667 62
-0.46194065 1.2517116 0.0028813218 29.309942 61
-0.4415524 1.2517099 0.0030875646 29.220339 60
-0.42147443 1.2517105 0.0033528791 29.451429 59
-0.41975218 1.2516667 0.0072211148 32 59
-0.4019641 1.2517095 0.0030319057 29.530725 58
-0.38256946 1.2517095 0.0031070006 30.167597 57
-0.36336681 1.2517092 0.0033960959 30.777779 56
-0.34456989 1.2517092 0.003301444 30.177778 55
-0.32591856 1.251709 0.0034627721 30.209946 54
-0.30751142 1.251709 0.0035779031 29.790054 53
-0.29006925 1.2516668 0.0012261688 25.75 52
-0.28932214 1.2517134 0.0036697912 27.975758 52
-0.27140251 1.251709 0.003507724 27.911602 51
-0.25365552 1.2517089 0.0033446494 27.248619 50
-0.2360782 1.251709 0.0031414535 26.209946 49
-0.21863958 1.2517099 0.002967339 29.141243 48
-0.20102391 1.2517089 0.0042555477 28.640884 47
-0.082415819 1.2517941 0.0079829739 13.969231 40
-0.06601651 1.251724 0.0059196251 29.485714 39
-0.049526479 1.2517185 0.0049787043 30.233767 38
-0.033004981 1.2517136 0.0048601213 28.68639 37
-0.016504578 1.2517089 0.0044534253 29.635359 36
1.6792447e-08 1.2517089 0.0042596711 29.127071 35
0.016507303 1.2517089 0.0042987508 28.607735 34
0.033019364 1.2517089 0.0044492758 28.364641 33
0.049555808 1.251709 0.0044191945 29.447514 32
0.066136025 1.2517089 0.0042100395 27.812155 31
0.082766727 1.2517089 0.0039727716 26.81768 30
0.099455059 1.2517089 0.0037481382 26.066298 29
0.11619592 1.2517089 0.0036593133 26.364641 28
0.1329841 1.251709 0.0037687824 27.016575 27
0.14980048 1.2517245 0.0041969568 27.422222 26
0.15005462 1.2516669 0.0025921958 29 26
0.166849 1.2517089 0.0037520721 27.756907 25
0.18392928 1.251709 0.0037656361 27.690607 24
0.20117894 1.2517089 0.0035260075 27.392265 23
0.21862245 1.251709 0.0030414865 28.232044 22
0.2361066 1.251709 0.0030288917 26.629835 21
0.25372192 1.2517092 0.0030975391 24.755556 20
0.27151364 1.2517089 0.0031200338 24.331491 19
0.28940767 1.2517149 0.0033897902 25.075001 18
0.29006067 1.2516668 0.0012546299 25.714285 18
0.3076497 1.2517089 0.0031523127 25.745857 17
0.32607713 1.2517089 0.0030030813 26.165747 16
0.34458891 1.2517091 0.0032492517 25.322222 15
0.36350152 1.2517089 0.0030451082 25.337017 14
0.38258708 1.251709 0.0030635477 25.580111 13
0.40189829 1.2517089 0.0031870184 26.751381 12
0.42170048 1.2517102 0.0028454217 24.625 11
0.44185451 1.2517092 0.0024401129 24.155556 10
0.46205887 1.2517124 0.0026389961 23.071428 9
0.4828015 1.2516631 0.0024495905 23.089888 8
0.50380224 1.251713 0.0024855398 22.759037 7
0.52521116 1.251711 0.0024936378 23.780346 6
0.54704028 1.2517142 0.0024987054 23.864197 5
0.56898141 1.2517315 0.0030568386 24 4
0.57033086 1.2516667 0.00080965547 24.035715 4
0.592161 1.2517097 0.0023443673 23.876404 3
0.61547565 1.2517142 0.0022504907 22.074074 2
0.63896173 1.2516649 0.002700205 22.25 1
0.6402759 1.2516611 0.00075198384 22.4 1
-0.61415625 1.2616813 0.0042824359 19.972221 68
-0.59165227 1.261683 0.0031577891 21.355371 67
-0.58955544 1.2616668 0.0065138522 21.76923 67
-0.57029444 1.2616667 0.00087088667 22.142857 66
-0.56844896 1.2616835 0.0039429278 23.192982 66
-0.54665703 1.2616819 0.003162784 25.089552 65
-0.5249604 1.2616814 0.0029458697 25.888111 64
-0.50354695 1.261682 0.0029651052 27.833334 63
-0.4826051 1.2616812 0.0028352956 27.972221 62
-0.46208733 1.2616823 0.0025811947 28.23077 61
-0.44160914 1.2616814 0.0029657916 29.098591 60
-0.43994561 1.2616667 0.0065335752 31 60
-0.42162606 1.2616813 0.0030124881 29.641378 59
-0.40205961 1.2616812 0.0028068433 28.965517 58
-0.38255733 1.2616811 0.0031371298 30.14966 57
-0.36339444 1.2616812 0.0033240067 31.197279 56
-0.34459797 1.2616812 0.0032245228 30.054422 55
-0.32599771 1.2616811 0.0032335992 29.659864 54
-0.30751839 1.2616812 0.0035564275 29.632652 53
-0.29003271 1.2616667 0.0013457061 25 52
-0.28937015 1.2616817 0.0035128491 27.323742 52
-0.2715272 1.2616812 0.0030722062 26.476191 51
-0.25363728 1.2616811 0.0034123948 26.530613 50
-0.23614369 1.2616811 0.0028791372 26.870749 49
-0.21856077 1.2616811 0.0033099882 28.897959 48
-0.20088166 1.2616814 0.0049247216 23.916084 47
-0.082384273 1.2616659 0.0083432402 13.373135 40
-0.066015862 1.2616812 0.0059286072 28.041096 39
-0.049536526 1.2616811 0.0047869459 30.585033 38
-0.033014193 1.2616812 0.0045966669 29.346939 37
-0.016508317 1.2616812 0.0042393035 30 36
1.6792482e-08 1.2616811 0.0042585083 27.55102 35
0.016509995 1.2616812 0.0041440777 28.612246 34
0.03302421 1.2616812 0.0043111271 28.081633 33
0.049569592 1.2616812 0.0041551478 27.074829 32
0.066154726 1.2616812 0.0039427988 27.115646 31
0.082784958 1.2616812 0.003764116 28.02721 30
0.099458486 1.2616812 0.0037158038 26.693878 29
0.11620614 1.2616811 0.0035768363 26.979591 28
0.13300881 1.2616812 0.0035934125 26.367348 27
0.1498082 1.2616898 0.0041481848 25.654322 26
0.15004905 1.2616659 0.002627332 27.363636 26
0.16686995 1.2616811 0.0036332258 26.721088 25
0.18396839 1.2616812 0.0035644928 26.435373 24
0.20123275 1.2616811 0.0032729027 28.408163 23
0.21875806 1.2616813 0.0024557756 28.503496 22
0.23625092 1.2616811 0.0024501237 26.190475 21
0.25384364 1.2616812 0.0026435957 25.387754 20
0.2714861 1.2616812 0.003216062 25.904762 19
0.28940824 1.2616814 0.0033880842 25.642857 18
0.29003271 1.2616667 0.0013457061 26 18
0.30767885 1.2616813 0.0030625507 26.510345 17
0.32608795 1.2616813 0.0029712298 25.791666 16
0.3446801 1.2616813 0.002998678 24.986111 15
0.36340907 1.2616812 0.0032859216 26.476191 14
0.38251907 1.2616812 0.0032317536 26.108843 13
0.40203559 1.2616812 0.0028635592 25.534246 12
0.42165217 1.2616812 0.0029537173 25.410959 11
0.44186795 1.2616812 0.0024111692 23.819445 10
0.4621172 1.2616817 0.0025202078 23.124088 9
0.48283067 1.2616814 0.0023927463 23.202797 8
0.50395834 1.2616819 0.0021917403 23.911112 7
0.52524722 1.2616812 0.0024285149 22.847221 6
0.54723102 1.2616823 0.0021685078 23.338461 5
0.56917769 1.2616863 0.0027298543 23.404255 4
0.57031864 1.2616662 0.00083006587 23.833334 4
0.59244215 1.2616813 0.0018940191 22.722221 3
0.61548024 1.2616824 0.0022432951 22.015625 2
0.63915139 1.2616875 0.0024193577 22.067415 1
0.6402759 1.2616664 0.0007519839 22.055555 1
-0.61428213 1.2716726 0.0040885597 18.485876 68
-0.59158015 1.2716734 0.0032734519 20 67
-0.58943325 1.271667 0.006709564 19.23077 67
-0.57037318 1.27169 0.00073946395 22.04878 66
-0.56842548 1.2716674 0.0039817328 22.732824 66
-0.5466488 1.271673 0.0031764703 24.595238 65
-0.52511436 1.2716726 0.0026682559 25.502825 64
-0.50356138 1.271673 0.0029388336 27.880953 63
-0.48270455 1.2716727 0.0026398557 27.333334 62
-0.4620406 1.2716731 0.0026766253 28.209877 61
-0.44167173 1.2716726 0.0028319657 28.629213 60
-0.43994561 1.2716666 0.0065335752 30 60
-0.42162141 1.2716727 0.0030230049 29.283237 59
-0.40204501 1.2716726 0.0028416372 29.508379 58
-0.38259944 1.2716726 0.0030327369 30.651686 57
-0.363415 1.2716726 0.0032702917 31.220339 56
-0.34455806 1.2716726 0.0033335907 31.213484 55
-0.32590073 1.2716726 0.0035148875 30.377777 54
-0.30758545 1.2716726 0.0033500413 29.155556 53
-0.2900745 1.2716669 0.001209092 25.047619 52
-0.28939456 1.2716732 0.0034327132 26.842768 52
-0.27156603 1.2716726 0.0029370345 24.849161 51
-0.25365275 1.2716726 0.0033551117 26.466667 50
-0.23581602 1.2716727 0.0041931914 22.625 49
-0.21849856 1.2716672 0.003578966 28.736841 48
-0.20086637 1.2716672 0.0049982644 22.136364 47
-0.082388312 1.2716669 0.0082971621 12.6 40
-0.066003829 1.2716672 0.0061008208 27.387754 39
-0.049520869 1.2716672 0.0050852131 30.423077 38
-0.033003908 1.2716672 0.004890902 29.111111 37
-0.016490187 1.2716726 0.0052772388 30.711111 36
1.6791532e-08 1.2716726 0.0043111164 29.188889 35
0.016508352 1.2716726 0.0042385086 29.611111 34
0.03302696 1.2716726 0.0042320359 27.922222 33
0.049576975 1.2716726 0.0040148632 27.311111 32
0.0661714 1.2716726 0.0037051744 26.333334 31
0.082797036 1.2716726 0.0036260958 27.255556 30
0.099470995 1.2716726 0.0035963929 27.6 29
0.11620446 1.2716726 0.0035906772 26.377777 28
0.13301462 1.2716726 0.0035513081 26.866667 27
0.14981206 1.2716748 0.0041237939 26.555555 26
0.15006116 1.2716672 0.0025508425 27.333334 26
0.16689803 1.2716726 0.0034738882 26.377777 25
0.18398015 1.2716726 0.0035041673 26.288889 24
0.20127784 1.2716726 0.0030607481 27.98889 23
0.21880652 1.2716731 0.0022450055 28.169697 22
0.2364376 1.2716727 0.0017013965 24.65896 21
0.25402102 1.2716726 0.0019817853 26.52809 20
0.27152753 1.2716726 0.0030717647 26.844444 19
0.28939521 1.2716734 0.0034310494 25.432259 18
0.29011467 1.271667 0.0010779427 26.719999 18
0.30767006 1.2716726 0.0030896694 25.629213 17
0.32602704 1.2716726 0.0031481418 26.292135 16
0.34470588 1.2716726 0.0029278845 25.502825 15
0.36351678 1.2716726 0.0030052089 25.117319 14
0.38264403 1.2716726 0.0029229037 24.588888 13
0.40207976 1.2716726 0.0027595954 25.022223 12
0.42169136 1.2716728 0.0028658246 24.151163 11
0.43994564 1.2716666 0.0065335752 22 10
0.44166195 1.2716726 0.0028526743 25.351955 10
0.46210855 1.271673 0.0025373532 23.166666 9
0.4828831 1.2716726 0.0022894142 23.134832 8
0.50380695 1.2716728 0.0024770729 24.390533 7
0.52533919 1.2716726 0.0022630799 22.903955 6
0.54722631 1.2716732 0.0021760508 23.547171 5
0.56911761 1.2716674 0.0028301594 23.314285 4
0.5703578 1.2716814 0.00076512375 23.848484 4
0.59240186 1.2716726 0.0019588945 22.949152 3
0.61555624 1.2716731 0.0021262462 23.530865 2
0.63910776 1.2716674 0.0024840643 21.178572 1
0.6402759 1.2716912 0.00075198384 21.794872 1
-0.61419058 1.2816998 0.0042292993 17.24719 68
-0.59159875 1.2817094 0.003243868 18.478872 67
-0.58957916 1.2816662 0.0064757988 17.944445 67
-0.5702796 1.2816662 0.00089537894 22.4 66
-0.56853217 1.2817103 0.0038044539 23.107914 66
-0.54668218 1.2817035 0.0031188119 23.481482 65
-0.5250206 1.2817008 0.0028374062 25.583815 64
-0.50369656 1.2817035 0.0026844216 27.160494 63
-0.48269925 1.2817006 0.0026500986 27.137932 62
-0.46210909 1.2817023 0.0025365222 28.886227 61
-0.44177157 1.2816992 0.0026179212 28.928177 60
-0.42171082 1.2817008 0.0028223502 29.699423 59
-0.40213475 1.2816998 0.0026298433 28.629213 58
-0.38263348 1.2816994 0.002948642 30.98889 57
-0.36349362 1.2816992 0.0030657293 31.403315 56
-0.34452039 1.2816994 0.0034371754 31.888889 55
-0.32591888 1.2816994 0.0034623586 31.022223 54
-0.30768102 1.2816995 0.0030558731 27.854748 53
-0.29009244 1.281666 0.0011500994 21.772728 52
-0.2894828 1.2817122 0.0031441119 24.089552 52
-0.27159324 1.2816993 0.002842136 24.788889 51
-0.25339812 1.2816992 0.0043052421 23.370165 50
-0.23584965 1.2816316 0.0040586782 20.933332 49
-0.016487211 1.2816992 0.0054477481 34.430939 36
1.6794999e-08 1.2816992 0.0041160276 30.364641 35
0.016513081 1.2816992 0.0039673052 32.662983 34
0.033034626 1.2816992 0.0040130778 31.480663 33
0.049583547 1.2816992 0.0038895274 29.436464 32
0.066185817 1.2816992 0.003499083 27.414364 31
0.082830228 1.2816992 0.0032462748 26.132597 30
0.09950529 1.2816992 0.0032701001 27.657459 29
0.11622157 1.2816992 0.0034509359 25.790054 28
0.13304095 1.2816991 0.0033639206 26.342541 27
0.14981729 1.2816561 0.0040908731 25.622223 26
0.15006186 1.2817466 0.0025464213 26.967033 26
0.16690655 1.2816992 0.0034256165 27.469614 25
0.18398306 1.2816992 0.0034890447 27.005526 24
0.20126398 1.2816992 0.0031261062 26.143646 23
0.218759 1.2817008 0.0024504573 26.034681 22
0.23638245 1.2817 0.0019224108 25.457626 21
0.25407764 1.2817005 0.00176994 26.742857 20
0.27168965 1.2816994 0.0025056968 26.222221 19
0.28951803 1.281715 0.0030290468 23.767124 18
0.29009479 1.2816347 0.0011428547 25.757576 18
0.30774623 1.2817 0.0028551787 25.491526 17
0.32615 1.2817006 0.0027914494 24.862068 16
0.34480661 1.2817001 0.002651033 25.113636 15
0.36360493 1.2816995 0.002775725 25.675978 14
0.38273901 1.2816995 0.0026874563 23.82123 13
0.40221345 1.2816991 0.0024445169 24.806629 12
0.42179537 1.2817006 0.0026323688 24 11
0.43994564 1.2816666 0.0065335752 24 10
0.44169044 1.2816995 0.0027919177 25.273743 10
0.4620485 1.2817085 0.0026603306 25.305389 9
0.48281804 1.2816995 0.002417041 24.536312 8
0.5038467 1.2817011 0.0024021666 24.046511 7
0.52539831 1.2817011 0.0021563231 23.61628 6
0.54721487 1.2816589 0.0021962286 23.2349 5
0.56916004 1.2817417 0.0027594662 22.907217 4
0.57035321 1.2816523 0.00077291677 23.514286 4
0.59248543 1.2817032 0.0018250061 21.91411 3
0.61564755 1.281659 0.0019856784 23.933775 2
0.6391021 1.2816672 0.0024922036 21.711712 1
0.6402759 1.2818321 0.0007519839 21.945946 1
-0.61433089 1.291687 0.004013354 18.040268 68
-0.59172827 1.2916889 0.0030363211 20.105263 67
-0.58957702 1.2916665 0.0064795213 19.894737 67
-0.57037437 1.2916669 0.00073761912 23.764706 66
-0.56871557 1.2916918 0.0034993214 23.719297 66
-0.54688346 1.2916902 0.002770738 26.112904 65
-0.52511519 1.2916875 0.0026670394 26.054794 64
-0.50359523 1.2916881 0.0028747153 27.114286 63
-0.48277837 1.291687 0.0024952698 27.758389 62
-0.46198139 1.291688 0.0027985652 29.205673 61
-0.44173723 1.2916874 0.0026910834 29.958904 60
-0.42164761 1.291687 0.0029639706 30.360001 59
-0.40208051 1.2916869 0.0027578236 29.668875 58
-0.3825939 1.2916871 0.0030465815 30.912752 57
-0.36352712 1.2916868 0.0029784536 30.688742 56
-0.34456801 1.291687 0.0033069756 31.677853 55
-0.32600859 1.2916869 0.0032018234 30.213333 54
-0.30767813 1.291687 0.0030647318 28.879999 53
-0.29008141 1.2916669 0.0011863228 23.055555 52
-0.28947058 1.2916915 0.003184102 25.189655 52
-0.27162069 1.2916867 0.0027461518 24.328947 51
-0.2534332 1.2916868 0.00417432 22.421053 50
-0.016486656 1.2916868 0.0054794024 30.552631 36
1.67952e-08 1.2916868 0.0041052662 29.68421 35
0.016513433 1.2916868 0.003946736 30.671053 34
0.033035148 1.2916868 0.003997677 28.56579 33
0.049591735 1.2916868 0.0037327961 28.710526 32
0.066192023 1.2916868 0.0034101426 27.81579 31
0.082855284 1.2916868 0.0029596451 25.447369 30
0.099549673 1.2916868 0.0028487528 26.289474 29
0.11625772 1.2916867 0.0031566615 27.592106 28
0.13304953 1.2916867 0.0033037462 26.052631 27
0.14982456 1.2916663 0.0040449682 25.887323 26
0.15005538 1.2917017 0.0025874248 27.037037 26
0.16689983 1.2916867 0.0034636678 27.81579 25
0.18398494 1.2916867 0.0034789094 26.68421 24
0.20126639 1.2916868 0.0031145148 24.986841 23
0.2186781 1.2916869 0.0028018639 25.213333 22
0.23621598 1.2916869 0.002590321 24.719999 21
0.25399372 1.2916871 0.0020831788 25.302013 20
0.27168539 1.2916868 0.0025206225 26 19
0.2895318 1.2916662 0.0029838071 22.981482 18
0.29010233 1.2917359 0.0011180157 23.857143 18
0.30777901 1.2916875 0.0027542762 24.882759 17
0.32626125 1.2916874 0.0024681934 24.816326 16
0.34486321 1.2916873 0.0024958022 25.224489 15
0.36361024 1.2916868 0.002762086 25.112583 14
0.38267559 1.2916676 0.0028441045 24.837837 13
0.40223286 1.2916871 0.0023989514 24.362415 12
0.42179757 1.2916881 0.0026272712 23.228571 11
0.4418374 1.2916869 0.0024762307 25.006622 10
0.46209911 1.2916675 0.0025571773 25.591549 9
0.482885 1.291687 0.0022859878 24.818792 8
0.50391221 1.2916876 0.002278399 24.319445 7
0.52537394 1.2916868 0.0021999485 24.93421 6
0.54723042 1.2916669 0.0021695772 22.777779 5
0.56918645 1.291666 0.0027151785 23.463415 4
0.57032484 1.2917194 0.0008196751 23.672728 4
0.58980018 1.2916666 0.0061224224 23 3
0.59238034 1.2916883 0.0019928496 23.57971 3
0.61554885 1.2916665 0.0021373993 23.863247 2
0.63916963 1.2916658 0.0023920208 21.891304 1
0.6402759 1.2916665 0.00075198425 21.894737 1
-0.614393 1.3016742 0.0039176317 18.897728 68
-0.59180903 1.3016748 0.0029071546 20.834356 67
-0.5896486 1.3016665 0.0063647372 21.857143 67
-0.57040453 1.3016664 0.00068719359 22.428572 66
-0.56854129 1.3016766 0.0037888752 22.992592 66
-0.5468666 1.3016759 0.0027995324 25.876713 65
-0.52517885 1.3016742 0.00255195 26.891428 64
-0.50356728 1.3016748 0.0029276451 26.625767 63
-0.48276326 1.3016745 0.0025246064 28.458824 62
-0.46205693 1.301675 0.0026431626 27.888199 61
-0.4418065 1.3016742 0.0025427346 28.579546 60
-0.42172864 1.3016745 0.0027823362 29.282352 59
-0.40216064 1.3016741 0.0025690845 29.22905 58
-0.38271153 1.3016742 0.002755248 30.21591 57
-0.36353859 1.3016742 0.002948558 30.960451 56
-0.34462118 1.3016742 0.0031603444 30.548571 55
-0.3260209 1.3016741 0.0031661501 30.078213 54
-0.30767179 1.3016741 0.0030843182 28.595505 53
-0.29009762 1.3016664 0.001133195 23.155556 52
-0.28943056 1.3016766 0.0033149649 25.037037 52
-0.27155951 1.301674 0.0029596209 25.922222 51
-0.25369039 1.3016741 0.0032146086 21.82123 50
-0.14931911 1.3016768 0.0072367326 22.179104 44
-0.13290319 1.3016766 0.0043449653 27.485294 43
-0.11614679 1.3016766 0.0040596998 27.970589 42
-0.099409595 1.3016766 0.0041804393 29.470589 41
-0.082741171 1.3016766 0.004264392 28.518518 40
-0.066134304 1.3016766 0.0042353519 28.637037 39
-0.049557876 1.3016766 0.0043785833 28.5 38
-0.033024926 1.3016766 0.004289682 30.367647 37
-0.016503869 1.301674 0.004494024 29.155556 36
1.6798834e-08 1.301674 0.0039000004 29.933332 35
0.016515711 1.301674 0.0038163429 29.744444 34
0.033037841 1.301674 0.0039211144 29.466667 33
0.049588896 1.301674 0.003787396 28.888889 32
0.066193126 1.301674 0.0033948279 27.844444 31
0.082872987 1.301674 0.0027572014 24.911112 30
0.099562213 1.301674 0.0027289423 27.122223 29
0.11625039 1.301674 0.003215719 26.333334 28
0.13305482 1.301674 0.0032652316 26.066668 27
0.14982378 1.301682 0.004049811 25.348314 26
0.15005842 1.3016664 0.0025681292 26.703297 26
0.16692407 1.301674 0.0033261692 27.944445 25
0.18399283 1.301674 0.003438727 26.111111 24
0.2013102 1.301674 0.0029085916 25.166666 23
0.21866356 1.301674 0.0028635717 25.477777 22
0.2361629 1.301674 0.0028027038 25.522223 21
0.25385714 1.301674 0.0025931101 24.244444 20
0.27168921 1.3016741 0.0025074289 24.21229 19
0.28951779 1.3016768 0.0030299288 24.328358 18
0.29009625 1.3016664 0.0011378148 25.130434 18
0.30782378 1.3016744 0.0026165373 25 17
0.32621348 1.3016745 0.0026069896 24.877193 16
0.34482569 1.3016744 0.0025986405 23.72093 15
0.36362165 1.301674 0.0027322285 25.355556 14
0.38276359 1.3016741 0.0026264614 25.617977 13
0.40224454 1.3016741 0.0023712893 24.505617 12
0.42178366 1.3016744 0.0026586826 23.267443 11
0.43994564 1.3016666 0.0065335752 24 10
0.44194293 1.3016742 0.0022506518 25.005714 10
0.46216679 1.3016747 0.0024181488 25.017963 9
0.4828831 1.3016741 0.0022894128 24.932585 8
0.50389445 1.3016664 0.0023122346 24.43038 7
0.5254907 1.3016745 0.0019894189 23.058823 6
0.54723674 1.3016757 0.0021582933 22.893333 5
0.5692693 1.3016809 0.0025775277 21.368422 4
0.57038265 1.3016664 0.000723932 22.085714 4
0.59255886 1.3016747 0.0017074876 22.024242 3
0.61563885 1.3016753 0.0019992576 22.32258 2
0.63930714 1.3016664 0.0021884078 20.891088 1
0.6402759 1.3016987 0.00075198378 21.627907 1
-0.61477017 1.31169 0.0033368042 21.474453 68
-0.59174544 1.3116907 0.0030087226 21.567163 67
-0.58968234 1.3116666 0.0063108918 22 67
-0.57031447 1.3116672 0.00083720952 22 66
-0.56853557 1.3117031 0.0037987223 23.32 66
-0.54707247 1.3116965 0.0024434333 25.423729 65
-0.52516544 1.31169 0.0025761763 26.394161 64
-0.50364178 1.3116937 0.0027869509 27.074381 63
-0.48273543 1.3116888 0.0025796555 28.965034 62
-0.46205664 1.3116924 0.0026442478 29.074627 61
-0.44183072 1.311689 0.0024905449 28.964539 60
-0.42179173 1.3116888 0.0026405028 29.535212 59
-0.40212861 1.3116878 0.0026439452 30.068027 58
-0.38268095 1.3116883 0.0028308753 30.424658 57
-0.36356875 1.3116878 0.0028700114 30.216217 56
-0.3447296 1.3116889 0.0028626337 30.084507 55
-0.326085 1.3116887 0.0029805007 29.678322 54
-0.30768025 1.3116878 0.0030582573 28.965986 53
-0.29012203 1.3116671 0.0010535038 24.388889 52
-0.28949228 1.3116963 0.0031131455 25.303572 52
-0.271622 1.3116877 0.0027415382 25.986486 51
-0.25377554 1.3116877 0.0028966658 24.891891 50
-0.1493157 1.3116878 0.0072581484 22.337837 44
-0.13289899 1.3116878 0.0043742871 28.148649 43
-0.11613734 1.3116878 0.004137021 28.540541 42
-0.09941785 1.3116877 0.0041021737 28.932432 41
-0.082758553 1.3116878 0.0040660016 28.527027 40
-0.066150352 1.3116878 0.0040059388 27.351351 39
-0.049572349 1.3116878 0.0041021318 30.391891 38
-0.033034712 1.3116878 0.0040090499 29.324324 37
-0.016514808 1.3116878 0.0038670881 29.243244 36
1.6800907e-08 1.3116877 0.0037837797 29.324324 35
0.016516596 1.3116878 0.0037657507 28.364864 34
0.033042766 1.3116878 0.00377946 28.283783 33
0.049592175 1.3116878 0.0037242714 28.094595 32
0.066188522 1.3116878 0.003459984 27.175676 31
0.082832731 1.3116878 0.0032179004 27.175676 30
0.099521734 1.3116877 0.003114362 27.621622 29
0.11626501 1.3116877 0.00309754 26.013514 28
0.13305517 1.3116877 0.0032636027 27.364864 27
0.1498502 1.3116641 0.0038830158 26.537313 26
0.1500573 1.3117113 0.002575231 27.506172 26
0.16692396 1.3116877 0.0033269085 26.837837 25
0.18404305 1.3116877 0.0031807902 26.905405 24
0.20130315 1.3116878 0.0029416422 24.324324 23
0.21866947 1.3116881 0.0028393806 24.244898 22
0.23615356 1.3116878 0.0028405827 24.364864 21
0.25385565 1.3116881 0.0025987686 24.164383 20
0.27165189 1.3116878 0.002637618 24.351351 19
0.28953177 1.3116647 0.0029839517 24.836065 18
0.2900553 1.3118024 0.0012721444 25.76923 18
0.30776411 1.3116883 0.0028001915 24.675861 17
0.32608664 1.3116882 0.002975123 26.248276 16
0.34482267 1.3116885 0.0026071414 25.236111 15
0.36369151 1.3116882 0.002550141 25.013699 14
0.38276142 1.3116888 0.0026320696 24.349649 13
0.40223089 1.3116882 0.0024033103 24.315069 12
0.42176655 1.3116883 0.0026971693 24.863014 11
0.44187078 1.3116884 0.0024048714 24.777779 10
0.46213126 1.3116902 0.0024913445 24.844444 9
0.48284927 1.3116883 0.0023561784 23.627586 8
0.50388271 1.3116642 0.0023336743 23.313433 7
0.52548516 1.3116893 0.0019997112 23.071428 6
0.54722124 1.3116916 0.0021855501 24.27907 5
0.56919551 1.3116647 0.002699964 22.632912 4
0.5703792 1.3117366 0.00072921487 22.705883 4
0.59249049 1.3116888 0.0018165491 21.718309 3
0.61558807 1.3116932 0.0020772519 21.918699 2
0.63916427 1.3117064 0.0024002893 21.364706 1
0.6402759 1.311667 0.00075198396 21.354839 1
-0.61481488 1.3217165 0.0032681569 20.413794 68
-0.59189415 1.3217162 0.0027709198 22.876713 67
-0.58980012 1.3216666 0.0061224229 23.333334 67
-0.57035553 1.3216666 0.00076883484 22.333334 66
-0.56867754 1.3217353 0.0035624579 23.805826 66
-0.54687244 1.3217238 0.0027898955 25.327999 65
-0.5251894 1.3217156 0.0025327387 27.094595 64
-0.5037117 1.3216665 0.0026556526 27.220589 63
-0.4827964 1.321716 0.0024600066 28.17687 62
-0.46207476 1.3217182 0.0026068748 29.314285 61
-0.44183609 1.321715 0.0024793586 30.32 60
-0.4217526 1.3217162 0.0027284499 29.684931 59
-0.40223455 1.3217144 0.0023947512 30.052631 58
-0.38267899 1.3217146 0.00283563 30.2649 57
-0.36358413 1.3217146 0.0028300763 32.754967 56
-0.34470627 1.3217146 0.0029267473 30.437086 55
-0.32611725 1.321715 0.0028866536 29.120001 54
-0.30781409 1.321715 0.0026462644 28.373333 53
-0.29010424 1.3218139 0.0011115103 25.061224 52
-0.2895273 1.3216652 0.0029983353 25.631067 52
-0.27161273 1.3217142 0.0027739673 26.640522 51
-0.25367647 1.3217142 0.0032664202 23.607843 50
-0.14938557 1.3216666 0.0068169027 23.040001 44
-0.13268182 1.3217202 0.0059197997 25.940298 43
-0.11609048 1.3217142 0.0045186719 29.241831 42
-0.099428385 1.3217142 0.0040016808 27.59477 41
-0.082771212 1.3217142 0.003921045 27.908497 40
-0.066151932 1.3217142 0.0039832485 27.764706 39
-0.049576137 1.3217142 0.004030203 30.366013 38
-0.033035196 1.3217142 0.0039949263 30.875816 37
-0.01651568 1.3217142 0.0038173245 29.398693 36
1.68002e-08 1.3217142 0.0038235264 29.79085 35
0.016517639 1.3217142 0.0037062285 28.130718 34
0.033046655 1.3217142 0.0036683285 28 33
0.04960078 1.3217142 0.0035602611 27.934641 32
0.06618569 1.3217142 0.0035007775 27.803921 31
0.082827017 1.3217142 0.0032829684 27.30719 30
0.099522784 1.3217142 0.0031046511 26.496733 29
0.11625375 1.3217142 0.0031887984 27.359478 28
0.13306037 1.3217142 0.0032260746 27.346405 27
0.14982675 1.3216655 0.0040310565 27.098591 26
0.15005685 1.3217531 0.0025780564 28.121952 26
0.16691785 1.3217142 0.00336157 27.673203 25
0.18403967 1.3217142 0.0031981305 27.228758 24
0.20131253 1.3217142 0.0028974088 24.535948 23
0.21868196 1.3217142 0.002784925 25.464052 22
0.23621243 1.3217142 0.0026045255 24.20915 21
0.25389656 1.3217146 0.0024459474 24.145695 20
0.27165237 1.3217142 0.0026357507 24.941177 19
0.28950739 1.3217295 0.0030636566 24.053097 18
0.29009429 1.3216666 0.00114438 25.473684 18
0.3077915 1.3217152 0.0027158044 25.476511 17
0.32610914 1.3217156 0.0029098236 26.81081 16
0.34479824 1.3217162 0.002674001 24.958904 15
0.36361647 1.321715 0.0027457247 25.066668 14
0.3829008 1.3217156 0.0022865478 24.635136 13
0.40229842 1.3217152 0.0022445079 22.939598 12
0.4218877 1.3217182 0.0024249889 24.871429 11
0.4419651 1.3217152 0.002202797 24.724833 10
0.4621318 1.3217185 0.0024900527 24.805756 9
0.48287886 1.3217152 0.0022979504 24.604027 8
0.50396383 1.3217188 0.0021813586 23.057972 7
0.52549154 1.3217185 0.0019877572 23.13669 6
0.54725909 1.3217185 0.0021196213 22.76259 5
0.56917822 1.3217603 0.0027286478 22.605263 4
0.57032454 1.321666 0.00082021253 23.379311 4
0.59253925 1.3217175 0.0017389109 21.478872 3
0.61576366 1.321723 0.0018069898 21.968504 2
0.63923484 1.321748 0.0022956887 20.896551 1
0.6402759 1.3216666 0.00075198407 21.76923 1
-0.61466527 1.3316998 0.0034982124 20.473373 68
-0.59201628 1.3316653 0.0025755835 23.044025 67
-0.58957928 1.3316667 0.0064757988 24 67
-0.57034004 1.3317703 0.00079434772 22.107143 66
-0.56865734 1.3316654 0.0035962581 23.876106 66
-0.54685038 1.3317027 0.0028274499 24.407642 65
-0.52524447 1.3316653 0.0024339317 26.783627 64
-0.50371099 1.3316653 0.0026575439 28.571428 63
-0.4829002 1.331699 0.0022557999 28.505747 62
-0.46200103 1.3316653 0.0027577064 29.915663 61
-0.44180226 1.3316982 0.0025519324 30.292135 60
-0.42182529 1.3317007 0.0025647811 30.060606 59
-0.40217206 1.3316982 0.0025419295 29.786516 58
-0.38278103 1.331699 0.0025832749 30.011494 57
-0.36353284 1.3316979 0.0029634626 31.82123 56
-0.34470361 1.3316985 0.0029339953 29.875 55
-0.3261691 1.3316985 0.0027354485 28.988636 54
-0.30772147 1.3316985 0.0029314326 28.477272 53
-0.290088 1.3316662 0.0011647847 24.324324 52
-0.28949696 1.3317063 0.0030977982 25.804195 52
-0.2716392 1.3316978 0.0026819259 26.566668 51
-0.25335914 1.3317003 0.0044511487 21.952095 50
-0.14934276 1.3316666 0.0070868656 14.666667 44
-0.13253815 1.331666 0.0069418787 23.869566 43
-0.11596722 1.3316655 0.0055227499 26.859814 42
-0.099386223 1.3316978 0.0044030654 27.700001 41
-0.082768485 1.3316978 0.0039526201 27.422222 40
-0.066167913 1.3316977 0.0037550516 28.544445 39
-0.049589474 1.3316977 0.0037763026 28.044445 38
-0.033040471 1.3316977 0.0038433841 29.811111 37
-0.016513372 1.3316977 0.0039496589 31.111111 36
1.6800414e-08 1.3316977 0.0038111068 30.01111 35
0.016516779 1.3316978 0.0037552402 28 34
0.033051807 1.3316978 0.0035213586 27.611111 33
0.049599938 1.3316978 0.0035765776 27.855556 32
0.066187702 1.3316977 0.0034724146 29.155556 31
0.082823157 1.3316977 0.0033272421 26.555555 30
0.099505849 1.3316978 0.0032648782 26.311111 29
0.11623081 1.3316977 0.0033756276 27.6 28
0.13306177 1.3316977 0.0032157162 25.755556 27
0.14983779 1.3316656 0.0039613186 25.870131 26
0.15007529 1.3317223 0.0024616972 26.873787 26
0.16693661 1.3316977 0.0032550427 27.6 25
0.18404382 1.3316977 0.0031769581 27.811111 24
0.20134483 1.3316978 0.0027455695 24.266666 23
0.21867114 1.3316979 0.0028306406 25.072626 22
0.2361818 1.3316978 0.0027272371 25.366667 21
0.25390327 1.3316978 0.0024213914 24.51111 20
0.27169883 1.3316978 0.002473657 24.98889 19
0.28946418 1.331706 0.0032051702 25.152779 18
0.29009962 1.3316662 0.0011271234 26.742857 18
0.30779496 1.3316981 0.0027052111 26.189943 17
0.326166 1.3316982 0.0027444477 25.47191 16
0.34479862 1.3317 0.0026730874 24.473373 15
0.36368567 1.3316988 0.0025652263 24.777143 14
0.38285416 1.3316987 0.0024022097 24.24 13
0.40225002 1.3316981 0.0023582589 24.312849 12
0.42186144 1.3317003 0.0024837921 24.994013 11
0.44191882 1.3316987 0.0023024427 24.377142 10
0.46223044 1.3317009 0.0022874712 24.512196 9
0.48293021 1.3316985 0.002196864 24.056818 8
0.50397617 1.3317016 0.0021585068 22.869566 7
0.52549946 1.3316995 0.0019736211 23.85965 6
0.54719669 1.3317031 0.0022273907 23.612904 5
0.56914628 1.3317195 0.0027825411 23.518518 4
0.57036376 1.3316659 0.00075486978 23.929825 4
0.59246522 1.3316994 0.0018575813 21.406977 3
0.61565208 1.3317049 0.00197926 21.027027 2
0.6391868 1.3317164 0.0023667843 21.73913 1
0.6402759 1.3316662 0.0007519839 22.117647 1
-0.61475635 1.3417203 0.0033579073 20.867132 68
-0.59188634 1.3417274 0.0027832645 21.640625 67
-0.58966756 1.3416663 0.0063344464 22.5 67
-0.57042253 1.3418522 0.00065728999 20.83721 66
-0.56860238 1.3416671 0.0036872893 23.425287 66
-0.54681242 1.3417292 0.0028938199 23.552 65
-0.52531725 1.341722 0.0023023533 26.273382 64
-0.50374633 1.3416653 0.002590162 27.68 63
-0.4828701 1.341722 0.0023151843 27.597122 62
-0.46209952 1.3416649 0.0025561943 29.323309 61
-0.44190797 1.3417192 0.0023248356 30.630136 60
-0.42175812 1.3417259 0.0027161301 30.122137 59
-0.40225899 1.3417186 0.0023371149 29.278912 58
-0.38276148 1.341722 0.0026315404 29.91367 57
-0.36368909 1.3417192 0.0025565196 29.657534 56
-0.34476081 1.341719 0.0027769671 29.780823 55
-0.32621923 1.3417202 0.0025903964 28.601398 54
-0.30783015 1.3417195 0.0025968559 27.917242 53
-0.29010153 1.3419012 0.0011206946 26.117647 52
-0.28949675 1.3416659 0.0030989153 27.280703 52
-0.2716127 1.3417183 0.002774013 27.418919 51
-0.25371736 1.3417207 0.0031137837 25.436619 50
-0.23595859 1.3417491 0.0036215521 25.670103 49
-0.13221443 1.3416666 0.0092453482 8 43
-0.11586118 1.3416667 0.006386376 26.200001 42
-0.099343821 1.3416669 0.0048064068 27.688889 41
-0.082743913 1.3416668 0.004232672 26.280001 40
-0.066060297 1.3417182 0.0052933502 28.729731 39
-0.049581192 1.3417183 0.0039334446 27.824324 38
-0.033042014 1.3417183 0.0037997183 28.378378 37
-0.016516579 1.3417183 0.0037657507 30.459459 36
1.6803307e-08 1.3417182 0.0036486452 29.324324 35
0.016519779 1.3417182 0.0035833425 27.972973 34
0.033052217 1.3417182 0.0035093552 27.797297 33
0.049612701 1.3417182 0.0033329211 27.621622 32
0.066194192 1.3417182 0.0033791021 28.121622 31
0.082822092 1.3417182 0.0033390592 26.027027 30
0.099514686 1.3417182 0.0031815569 28.472973 29
0.11625431 1.3417182 0.0031847225 27.824324 28
0.13307393 1.3417183 0.0031297782 25.905405 27
0.14983469 1.3416669 0.0039809248 25.433962 26
0.15005848 1.341751 0.0025677865 26.336842 26
0.1669732 1.3417182 0.0030474374 26.770269 25
0.18408406 1.3417186 0.0029701712 26.666666 24
0.20151137 1.3417186 0.0019620464 24.721088 23
0.2188164 1.3417187 0.0022030675 24.040817 22
0.23623689 1.3417183 0.0025062282 24.364864 21
0.25387719 1.3417182 0.0025181281 24.540541 20
0.27169979 1.3417187 0.002470606 25.374149 19
0.28947976 1.3416656 0.0031538308 25.008404 18
0.29007459 1.3419514 0.0012090917 25.857143 18
0.30781078 1.3417192 0.0026565215 25.80822 17
0.32628661 1.3417194 0.0023947759 23.531034 16
0.34478951 1.34172 0.0026984895 24.875 15
0.36365849 1.3417199 0.0026362878 24.625 14
0.38277882 1.3417234 0.0025885429 23.882353 13
0.40229088 1.3417186 0.0022619853 23.70068 12
0.42188698 1.3417249 0.0024267053 24.932331 11
0.44197997 1.3417195 0.0021708258 24.096552 10
0.46220592 1.3417238 0.0023382201 24.577778 9
0.48304647 1.34172 0.0019690536 22.333334 8
0.50401509 1.3417295 0.0020845714 22.854839 7
0.52552629 1.341723 0.0019250186 23.372263 6
0.54724622 1.3417308 0.0021422983 23.163935 5
0.56916434 1.3417575 0.00275224 23.863636 4
0.57031864 1.3416668 0.00083006581 24.745098 4
0.5924269 1.3417212 0.0019183273 21.460993 3
0.61564738 1.3417307 0.0019860484 20.950819 2
0.63921982 1.3416669 0.0023179229 22 1
0.6402759 1.3419416 0.00075198401 22 1
-0.61489409 1.3516684 0.003145871 21.325443 68
-0.59173566 1.3517069 0.0030247916 21.341318 67
-0.58937615 1.3516666 0.006800896 21.200001 67
-0.57036376 1.3516668 0.00075486983 22.877193 66
-0.56855536 1.3516679 0.0037659239 23.74312 66
-0.54699343 1.3516682 0.0025799009 24.959459 65
-0.52534389 1.3517071 0.0022547028 26.26506 64
-0.50377369 1.3517107 0.0025391243 27.947369 63
-0.48282343 1.3517064 0.0024066339 27.550297 62
-0.46216711 1.3517096 0.0024175674 28.602564 61
-0.44189942 1.3517052 0.0023438437 29.417143 60
-0.42188147 1.3517072 0.0024387406 29.433735 59
-0.40230784 1.3517052 0.0022218903 29.131428 58
-0.38288546 1.3517045 0.0023248473 29.363129 57
-0.36376378 1.3517056 0.0023618748 28.531792 56
-0.34480098 1.3517052 0.0026663393 29.931429 55
-0.32623988 1.3516685 0.0025302765 28.462427 54
-0.30784923 1.3517048 0.0025381572 27.875706 53
-0.29009694 1.3516665 0.0011353202 27.040001 52
-0.28951305 1.3517176 0.0030449692 28.138462 52
-0.27159992 1.3517045 0.0028188943 27.977654 51
-0.25384256 1.3517041 0.0026467727 27 50
-0.23616236 1.351705 0.0028039105 26.113636 49
-0.21868691 1.3517226 0.0027636653 26.59322 48
-0.08236216 1.3516666 0.0085960152 8 40
-0.06597469 1.3517046 0.0065173777 25 39
-0.049571738 1.3517041 0.0041147256 28.244444 38
-0.03304337 1.3517042 0.0037601017 28.98889 37
-0.016517827 1.3517042 0.0036941369 33.666668 36
1.6802089e-08 1.3517041 0.0037166623 32.122223 35
0.016517458 1.3517042 0.0037163566 28.955555 34
0.033047345 1.3517042 0.0036490583 29.822222 33
0.049603149 1.3517042 0.0035155504 26.799999 32
0.066198535 1.3517041 0.0033172416 27.033333 31
0.082824573 1.3517041 0.0033106403 26.088888 30
0.099515162 1.3517041 0.0031764773 28.966667 29
0.11626189 1.3517042 0.0031219798 27.422222 28
0.13308647 1.3517041 0.0030396651 26.022223 27
0.14984566 1.3516668 0.0039117504 24.576271 26
0.15007232 1.3517212 0.0024803986 25.983471 26
0.16701065 1.3517045 0.0028349906 26.793297 25
0.18410413 1.3517044 0.0028668682 24.703911 24
0.20165923 1.3517097 0.0012662327 24.116129 23
0.2188281 1.3517065 0.0021512564 25.12426 22
0.23631594 1.3517045 0.0021891231 23.955307 21
0.25392902 1.3517041 0.0023247995 24.377777 20
0.27175701 1.3517042 0.0022707274 24.5 19
0.28946552 1.3517166 0.0032007778 24.766918 18
0.29009622 1.3516662 0.0011378148 25.826086 18
0.3078866 1.3517069 0.0024231058 25.281437 17
0.32622662 1.3517052 0.0025687823 23.565714 16
0.34489927 1.3517059 0.0023964958 23.709303 15
0.36366609 1.3517047 0.0026162849 24.858757 14
0.38284341 1.3517054 0.0024287638 23.954023 13
0.40230823 1.3517046 0.0022213224 24.213484 12
0.42190331 1.3517079 0.0023899609 23.668711 11
0.44198588 1.3517054 0.0021583319 24.206896 10
0.46218324 1.3517071 0.0023841392 24.710844 9
0.48304638 1.351706 0.001969049 22.631578 8
0.50395691 1.3517091 0.0021948856 23.56962 7
0.52541524 1.3517077 0.002125568 23.926828 6
0.54731077 1.3517118 0.0020298802 22.878378 5
0.56916392 1.3517321 0.0027530212 23.959999 4
0.57036436 1.351667 0.00075416482 24.375 4
0.59243029 1.3517076 0.0019132635 21.658537 3
0.61560822 1.3517129 0.0020460018 21.777779 2
0.63925821 1.3517321 0.0022608109 20.879999 1
0.6402759 1.3516666 0.00075198396 20.967741 1
-0.61490387 1.3616946 0.0031308653 21.892216 68
-0.59190339 1.3616649 0.0027561134 21.878048 67
-0.58935851 1.3616667 0.0068291542 23.333334 67
-0.57034892 1.3617642 0.00077964028 23.647058 66
-0.56867307 1.3616652 0.0035700663 23.91453 66
-0.54691803 1.361665 0.0027105554 25.849316 65
-0.52530617 1.3616959 0.0023222107 27.075001 64
-0.50379956 1.3616649 0.0024905449 28.429531 63
-0.48289695 1.3616946 0.0022624859 28.502995 62
-0.46210995 1.3616962 0.002534549 28.278481 61
-0.44192126 1.3616936 0.0022971069 28.60465 60
-0.43994561 1.3616667 0.0065335752 28 60
-0.42192584 1.3616965 0.0023391552 28.420382 59
-0.40223432 1.3616931 0.0023954741 28.034286 58
-0.38280329 1.3616941 0.0025278137 29.053255 57
-0.36368641 1.3616928 0.0025635227 29.050848 56
-0.34481704 1.3616648 0.0026224253 29.425287 55
-0.32612744 1.3616933 0.0028566592 28.160919 54
-0.30788127 1.3616924 0.0024395459 27.877094 53
-0.29011619 1.3616674 0.0010724779 25.380953 52
-0.28950763 1.3617013 0.0030628489 27.503649 52
-0.27163294 1.3616927 0.0027035873 27.35955 51
-0.25383174 1.3616927 0.0026872328 27.022472 50
-0.23616418 1.3616923 0.0027972921 27.655556 49
-0.21864602 1.3616924 0.0029395074 27.765364 48
-0.20127532 1.3617021 0.0030728136 27.432837 47
-0.082547382 1.3616664 0.0064790933 18.0625 40
-0.066070437 1.3616929 0.0051481095 27.306818 39
-0.049578138 1.3616923 0.0039926702 28.98889 38
-0.033041436 1.3616923 0.0038156235 28.855556 37
-0.016516667 1.3616923 0.0037607949 29.266666 36
1.6802186e-08 1.3616923 0.003711107 29.444445 35
0.016519878 1.3616923 0.0035774864 27.822222 34
0.033053551 1.3616923 0.0034713892 27.377777 33
0.049612161 1.3616923 0.0033435663 26.211111 32
0.066195451 1.3616923 0.0033615767 27.155556 31
0.082820706 1.3616923 0.0033549154 27.055555 30
0.099519201 1.3616923 0.0031378011 28.111111 29
0.11627409 1.3616923 0.0030227264 27.722221 28
