# .PCD v0.7 - Point Cloud Data file format
VERSION 0.7
FIELDS x y z intensities index
SIZE 4 4 4 4 4
TYPE F F F F F
COUNT 1 1 1 1 1
WIDTH 1144
HEIGHT 1
VIEWPOINT 0 0 0 1 0 0 0
POINTS 1144
DATA ascii
0.015835166 1.4316665 0.042804848 1 34
0.11065738 1.4316666 0.048768114 30 28
-0.14385952 1.4416665 0.041706577 11.538462 44
-0.12713462 1.4416666 0.04539011 16 43
-0.015823657 1.441666 0.043462411 27.243244 36
1.6085069e-08 1.441666 0.044100005 21.799999 35
0.015794443 1.4416666 0.045137893 2 34
0.094847545 1.4416661 0.047586139 22.307692 29
0.11101191 1.4416661 0.045880679 28.181818 28
-0.14325224 1.4516665 0.045540854 3.4666667 44
-0.12699953 1.4516665 0.046351261 29.17647 43
-0.015814358 1.452242 0.043995142 23.142857 36
1.6077967e-08 1.4516667 0.044499993 16.333334 35
0.095329948 1.4519763 0.042996027 25.461538 29
0.11108392 1.4516666 0.045294177 28 28
-0.38260388 1.4616666 0.04864167 4 58
-0.14334609 1.4616666 0.044948239 3 44
-0.12730856 1.4616666 0.044152286 26.5 43
-0.015864221 1.4616666 0.041138481 22 36
1.6140113e-08 1.4616666 0.04100002 22 35
0.095460646 1.4616665 0.041752871 25.333334 29
0.22559217 1.4616666 0.045199241 13.5 21
0.24339345 1.4616666 0.041643381 3.2 20
0.25892687 1.4616666 0.047014818 4.25 19
0.2603395 1.4616666 0.042088311 4 19
0.27746075 1.4616666 0.042466771 5 18
0.29511124 1.4616666 0.041741025 4 17
0.3118943 1.4616666 0.044193249 8 16
-0.3840887 1.4716666 0.04514372 4 58
-0.2422546 1.4722799 0.045893423 19 50
-0.22571312 1.4724845 0.044714082 4 49
0.079328232 1.4716672 0.043274354 8.1081085 30
0.095250517 1.4716671 0.043751881 27.959999 29
0.19294205 1.4716666 0.042279076 8 23
0.2087096 1.4716666 0.04597944 16.799999 22
0.22565266 1.4716666 0.044956665 12 21
0.24244875 1.4716666 0.045169007 3 20
0.27716839 1.4716666 0.043423068 6 18
0.29387516 1.4716666 0.045545291 4 17
0.31319657 1.4716666 0.040411126 4 16
-0.25854781 1.4816667 0.048336547 0 51
-0.24265231 1.4816667 0.044409193 10.487804 50
-0.22498733 1.4816667 0.047624972 18.5 49
-0.2083984 1.4816667 0.047327321 2.6666667 48
-0.079202771 1.4816667 0.044708066 19.25 40
-0.063338868 1.4816667 0.044211838 19.631578 39
0.047322191 1.4816667 0.047039159 26.200001 32
0.063488372 1.4816877 0.042074203 2.2857144 31
0.079224586 1.4816771 0.044459008 13.285714 30
0.095031321 1.4816667 0.045837522 28 29
0.17602131 1.4816667 0.044448927 11 24
0.19179854 1.4816667 0.047658872 7 23
-0.38291648 1.4916667 0.047905218 26 58
-0.34618342 1.4916667 0.048161279 0 56
-0.32919437 1.4916667 0.045545857 22 55
-0.26047727 1.4916667 0.041607689 0 51
-0.25874469 1.4916667 0.04764992 0 51
-0.24254793 1.4915861 0.044798687 10 50
-0.22583407 1.4916667 0.044228937 25.5 49
-0.20890452 1.4916667 0.045134991 2.6666667 48
-0.19211039 1.4916667 0.046191584 28 47
-0.17596401 1.491666 0.044743419 6 46
-0.079178408 1.4915955 0.044986397 19.882353 40
-0.063329563 1.4915861 0.044344842 18.533333 39
0.031584058 1.4916667 0.045551293 7 33
0.047354244 1.4916995 0.046427488 27.625 32
0.06340865 1.4916667 0.043214273 2 31
0.079364039 1.4916667 0.042865109 17.200001 30
0.094598271 1.4916667 0.049957704 24 29
0.17541708 1.4916667 0.047557402 7.3333335 24
0.19211042 1.4916667 0.046191584 16 23
-0.36636522 1.5016667 0.043214213 8 57
-0.34725851 1.5016667 0.045360576 0 56
-0.33004943 1.5016667 0.04319663 26 55
-0.32765529 1.5016667 0.049774479 18 55
-0.26047727 1.5016667 0.041607689 0 51
-0.25902557 1.5016669 0.046670333 0 51
-0.1760022 1.501441 0.044547092 6 46
-0.094919041 1.5016669 0.046905529 4.0689654 41
0.031645134 1.5016667 0.043802377 7 33
0.047311723 1.5016667 0.047238868 28 32
0.094598271 1.5016667 0.049957704 24 29
-0.31232834 1.5116667 0.04293251 2 54
-0.26075292 1.5116667 0.040646445 0 51
-0.25889236 1.511582 0.047134958 0 51
-0.17659372 1.5116667 0.041504037 28 46
-0.095059395 1.5116668 0.045570079 4.1176472 41
-0.31152219 1.5216666 0.045273788 2 54
-0.25882345 1.5216666 0.047375273 17 51
-0.17625979 1.5216666 0.043221902 27.5 46
-0.095225409 1.5216666 0.043990552 14 41
-0.047359254 1.5218601 0.046331048 19.333334 38
0.1588881 1.5216666 0.048900913 6 25
-0.31238264 1.5316666 0.042774927 27 54
-0.29263908 1.5316666 0.049349438 8 53
-0.27672982 1.5316666 0.044857543 4 52
-0.26075292 1.5316666 0.040646445 24 51
-0.25827217 1.5316666 0.049297821 20 51
-0.159409 1.5316666 0.04594649 4 45
-0.14360681 1.5316666 0.04330213 18 44
-0.095538996 1.5316666 0.041006994 24 41
-0.047558419 1.5316666 0.042531047 22 38
-0.015811864 1.5316666 0.044137966 20 36
0.015832838 1.5316666 0.042938173 7.5999999 34
0.12728153 1.5316663 0.044344839 5.1111112 27
0.14321117 1.5316664 0.045800377 2.8235295 26
0.15906174 1.5316666 0.047916066 18 25
-0.015846768 1.5416666 0.04213829 24 36
0.12678671 1.5416666 0.047865797 8 27
0.14372417 1.5416666 0.042561349 3 26
0.15958269 1.5416666 0.044961642 18 25
0.16027728 1.5416666 0.041022491 18 25
-0.24096051 1.3316666 0.050723027 6 50
-0.27395228 1.3416666 0.053942453 10 52
-0.25680211 1.3416666 0.054424495 9.333333 51
-0.24070169 1.3416666 0.05168898 10 50
-0.22353582 1.3416666 0.053446721 6 49
-0.10980426 1.3416666 0.0557159 2 42
-0.094284661 1.3416666 0.052941214 2 41
-0.078492448 1.3416666 0.052827071 24.799999 40
-0.062711053 1.3416666 0.053189922 16.666666 39
0.093922861 1.3416665 0.056383826 0.15384616 29
0.10963368 1.3416665 0.057105452 24.200001 28
0.11016991 1.3416666 0.05273832 24 28
0.12577771 1.3416663 0.055045228 0 27
0.14174983 1.3417565 0.05502693 14.258064 26
-0.29063046 1.3516668 0.055531327 6 53
-0.28948021 1.3517389 0.059071403 6 53
-0.2076298 1.3516666 0.050656449 24 48
-0.110048 1.3516666 0.053730797 2 42
-0.10968239 1.3516666 0.056708466 2 42
-0.078149639 1.3516668 0.056745421 20.133333 40
-0.062441997 1.3517287 0.05703767 15.333333 39
0.078353018 1.3516666 0.054420963 7.75 30
0.09414532 1.3516666 0.054267257 0 29
0.11004803 1.3516666 0.053730857 21.5 28
0.12585889 1.3516666 0.05446757 0.66666669 27
0.14201644 1.3516666 0.053343594 12.333333 26
-0.29217553 1.3616667 0.050776076 5 53
-0.28970343 1.3616667 0.058384519 6 53
-0.20650503 1.3618467 0.055528287 2 48
-0.078056671 1.3616667 0.05780803 18 40
-0.062422063 1.3616667 0.057322673 14.571428 39
0.077960826 1.3616667 0.058903854 0 30
0.14133856 1.3616667 0.057623606 4 26
-0.32543215 1.3716668 0.055882465 4.3333335 55
-0.30792236 1.3716666 0.055728517 26 54
-0.20643008 1.3716666 0.055853039 2 48
-0.078207739 1.3716666 0.056081284 16.666666 40
-0.062594794 1.3716666 0.054852515 12 39
-0.38135356 1.3816667 0.051587235 28 58
-0.37900919 1.3816667 0.057110261 24 58
-0.32457709 1.3816667 0.058231693 0 55
-0.3080526 1.3816667 0.055350315 27.200001 54
-0.19040552 1.3816667 0.054212429 22.799999 47
-0.17339335 1.3816876 0.057968594 0.54545456 46
-0.15750332 1.3816791 0.056754138 16.410257 45
-0.12585191 1.3816674 0.054517105 26.366667 43
-0.078211382 1.3816674 0.056039792 4.15625 40
-0.062575907 1.3816674 0.055122714 27.125 39
0.062780842 1.3816667 0.052192401 18 31
0.15841056 1.3816667 0.05160914 15.5 25
-0.38076743 1.3916665 0.052967999 2 58
-0.37906927 1.3916665 0.056968652 2.9230769 58
-0.17397009 1.3916667 0.055001404 0.5 46
-0.15807411 1.3916665 0.053517196 4.375 45
-0.12602122 1.3916172 0.053312257 27.75 43
-0.078249998 1.3916665 0.055598274 4 40
-0.062628619 1.3916665 0.054368839 28 39
0.031262983 1.3916665 0.054745689 2 33
0.046736024 1.3916667 0.058223795 24 32
0.15836716 1.3916667 0.051855337 6 25
0.17390878 1.3916665 0.055316925 9.1428576 24
-0.38096285 1.4016666 0.052507743 2 58
-0.37920454 1.4016666 0.056650024 2 58
-0.15808494 1.4016666 0.053455643 0 45
-0.12597483 1.4016666 0.053642351 28 43
0.031281598 1.4016666 0.054212678 2 33
0.17478105 1.4016666 0.050829481 2 24
0.18954618 1.401885 0.058255415 4.3333335 23
0.19039515 1.4016666 0.054261342 5.5 23
-0.15720947 1.4116665 0.058420729 0 45
0.015637372 1.4116666 0.054136466 16.799999 34
0.1909669 1.4116666 0.05157141 5 23
0.206865 1.4116668 0.053969286 6 22
0.2232133 1.4116668 0.054740477 8 21
0.23914881 1.4116665 0.057484537 1.3333334 20
0.24054644 1.4116666 0.052268542 8 20
0.25551584 1.4116666 0.058910426 6 19
0.27365994 1.4116666 0.05489872 7 18
0.29233009 1.4116666 0.05030055 6 17
0.015585015 1.4216666 0.05713601 14 34
0.093814313 1.4216666 0.057416599 6 29
0.10956056 1.4216666 0.057701003 30 28
0.20605516 1.4216666 0.057477038 10 22
0.2233544 1.4216666 0.054174464 9 21
0.23888999 1.4216666 0.058450472 8 20
0.25689402 1.4216666 0.054104101 12 19
0.27512178 1.4216666 0.050117265 8 18
0.3070108 1.4216666 0.058375966 6 16
-0.14169352 1.4316666 0.055382304 22 44
-0.12573294 1.4316666 0.055363525 16.142857 43
0.015654827 1.4316666 0.053136636 0.40000001 34
0.093929291 1.4316666 0.056322634 5.1999998 29
0.10949962 1.4316666 0.058197271 30 28
0.1101699 1.4316666 0.05273832 30 28
-0.2560671 1.4416666 0.056987833 0 51
-0.24044289 1.4416666 0.052654874 22 50
-0.2388037 1.4416666 0.058772434 20 50
-0.14176872 1.4416666 0.054907408 22.5 44
-0.12542973 1.4416666 0.057520892 16.5 43
-0.015680971 1.4416666 0.051636856 28 36
1.5953676e-08 1.4416666 0.051500004 21 35
0.094100244 1.441666 0.054696295 24.705883 29
0.1098043 1.4416666 0.05571587 30 28
0.11029176 1.4416666 0.051745784 30 28
-0.25551581 1.4516665 0.0589104 0 51
-0.24044289 1.4516666 0.052654874 16 50
-0.23949386 1.4516665 0.056196619 16.666666 50
-0.14204247 1.4516667 0.053178985 2.4000001 44
-0.12589598 1.4516666 0.054203499 27.6 43
-0.015629586 1.4516665 0.054580849 19.703703 36
1.5901398e-08 1.4516665 0.054444451 17.703703 35
0.094150297 1.4516666 0.054219913 26 29
0.10951994 1.4516665 0.058031827 18.666666 28
0.11004803 1.4516666 0.053730857 30 28
-0.38099834 1.4622442 0.052424077 4 58
-0.37893811 1.4616662 0.057277635 4 58
-0.25597522 1.4616666 0.057308286 0 51
-0.24057229 1.4616666 0.052171927 11 50
-0.23966642 1.4616666 0.055552673 11 50
-0.14188604 1.4616666 0.054166686 2 44
-0.12567329 1.4616666 0.055787932 26 43
-0.015642574 1.4616665 0.053836524 18.200001 36
1.5914612e-08 1.4616665 0.0537 16.4 35
0.10974336 1.4616666 0.056212168 15 28
0.2230278 1.4616665 0.055484373 6.8000002 21
0.23863117 1.4616666 0.059416424 2 20
0.24087428 1.4616666 0.051045049 2 20
0.25727993 1.4616666 0.052758336 4 19
0.27317265 1.4616666 0.056492578 6 18
0.29093951 1.4616666 0.054580312 4 17
0.30811769 1.4616666 0.055161215 2.4000001 16
-0.3811582 1.4716666 0.052047502 4 58
-0.37891153 1.4716665 0.057340406 4 58
-0.25579146 1.4716666 0.057949137 0 51
-0.24035661 1.4716667 0.052976858 9.333333 50
-0.23918574 1.4716665 0.05734653 12.857142 50
0.078004405 1.4716666 0.058405768 6 30
0.093552984 1.4716666 0.059902918 28 29
0.18940757 1.4716666 0.05890752 6 23
0.19037782 1.4716667 0.054342855 7.3333335 23
0.20661756 1.4716666 0.055041086 18 22
0.22426161 1.4716666 0.050535869 6 21
0.23966645 1.4716666 0.055552702 5 20
0.24096054 1.4716666 0.050723087 3 20
0.25597525 1.4716665 0.057308327 5 19
0.28923991 1.4716666 0.059811126 6 17
0.29032147 1.4716666 0.056482386 5 17
0.30717358 1.4716666 0.057903212 1 16
-0.25621557 1.4816667 0.056470279 0 51
-0.24076639 1.4816667 0.051447477 9 50
-0.23922274 1.4816667 0.057208546 8.5714283 50
-0.2230635 1.4816667 0.055341125 22.857143 49
-0.20648955 1.4816667 0.05559548 2.3448277 48
-0.078392074 1.4816667 0.053974397 14.137931 40
-0.062708564 1.4816667 0.053225551 22.357143 39
0.046893023 1.481671 0.05522792 25.882353 32
0.062606454 1.4816667 0.054686259 3 31
0.078309447 1.4816667 0.054919045 8 30
0.093971103 1.4816667 0.05592481 25.6 29
0.1735249 1.4816667 0.057291865 5.6666665 24
0.18940757 1.4816667 0.05890752 14 23
0.19086294 1.4816667 0.052060496 8 23
-0.38018137 1.4916667 0.054348778 26 58
-0.25626659 1.4916515 0.056292489 0.04255319 51
-0.24044289 1.4916667 0.052654874 12 50
-0.23953702 1.4916667 0.056035634 13.5 50
-0.22268909 1.4916667 0.05684277 23 49
-0.20639259 1.4914651 0.056015451 2.6666667 48
-0.17452662 1.4916667 0.052138314 6 46
-0.078178689 1.4916667 0.056413345 15.4 40
-0.062571533 1.4916667 0.055185027 21.200001 39
0.031242047 1.4916667 0.055345323 6.1333332 33
0.046931718 1.4916666 0.054489795 26.782608 32
0.062292546 1.4916667 0.059175324 2 31
0.078004405 1.4916667 0.058405768 16 30
0.094054721 1.4916667 0.055129193 24 29
0.17414503 1.4916667 0.054101575 8.666667 24
0.18982339 1.4916667 0.056951236 16 23
-0.34277892 1.5016667 0.057030331 7 56
-0.25645626 1.5016669 0.055630807 0.23529412 51
-0.17382698 1.5016667 0.055737626 6 46
-0.094151102 1.5016669 0.054212019 4 41
0.031281598 1.5016667 0.054212689 10.333333 33
0.046927925 1.5016667 0.054562163 28 32
0.094284691 1.5016667 0.052941214 24 29
0.10949961 1.5016667 0.058197271 20 28
0.11041364 1.5016667 0.050753187 24 28
-0.30766189 1.5116667 0.056484949 2 54
-0.2562342 1.5116664 0.056405306 5.3333335 51
-0.17373157 1.5116667 0.05622847 26 46
-0.094090529 1.5116184 0.054788198 4 41
-0.046814501 1.5116665 0.056725845 6 38
0.031211799 1.5116667 0.056211442 21.333334 33
0.10948744 1.5116667 0.058296513 24 28
0.11004803 1.5109898 0.053730857 20 28
-0.30733633 1.5216666 0.057430457 2 54
-0.25654945 1.5216666 0.055305667 15 51
-0.15836713 1.5216666 0.051855337 4 45
-0.094180129 1.5216666 0.053935777 22 41
-0.046934437 1.521667 0.054437328 18.333334 38
0.015588188 1.5216666 0.056954209 5.090909 34
0.15778832 1.5216666 0.055138022 6 25
-0.30928972 1.5316666 0.051757347 26 54
-0.29233006 1.5316666 0.05030055 10 53
-0.28923988 1.5316666 0.059811126 6 53
-0.27365988 1.5316666 0.05489875 4 52
-0.25634274 1.5316666 0.056026589 20 51
-0.15778829 1.5316666 0.055138003 6 45
-0.12562691 1.5316666 0.056118023 6.6666665 43
-0.10939804 1.5316666 0.059024382 4 42
-0.046962779 1.5316666 0.053896416 20 38
-0.031322282 1.5316666 0.053046744 4 37
-0.015619887 1.5316666 0.055136334 14 36
1.5882652e-08 1.5316666 0.055500012 4 35
0.015628645 1.5316666 0.054636385 5 34
0.12564057 1.5316664 0.056020938 4.5882354 27
0.1417166 1.5316666 0.055236682 2.6666667 26
0.15788093 1.5316666 0.054612793 10.4 25
-0.015550078 1.5416666 0.059135746 12 36
1.5873775e-08 1.5416666 0.056000005 4 35
0.12604445 1.5416666 0.053147208 2.6666667 27
0.14191736 1.5416666 0.053969134 2.4000001 26
-0.23733705 1.3316666 0.064246014 8 50
-0.25248381 1.3416666 0.069484249 4 51
-0.23707823 1.3416666 0.065211944 10 50
-0.1082352 1.3416666 0.068494953 2 42
0.093042657 1.3418303 0.064758509 0 29
0.10863603 1.3416668 0.065230675 20.620689 28
0.12429425 1.3416663 0.065600604 0 27
0.13953955 1.3416666 0.06898196 12 26
0.14079104 1.3416666 0.061080486 14 26
-0.28817692 1.3516669 0.063082717 6.8000002 53
-0.20481792 1.3516666 0.062836066 21 48
-0.10850432 1.3516666 0.066303082 2 42
-0.077499859 1.3516915 0.064172171 18.615385 40
-0.061962619 1.3516663 0.063892983 14.75 39
0.07737191 1.3516665 0.065635294 0.45714286 30
0.092674956 1.3516666 0.0682569 0 29
0.10846373 1.3516666 0.066633925 20.25 28
0.1242816 1.3516666 0.065690622 0 27
0.13965128 1.3516666 0.06827651 8 26
0.14035301 1.3516666 0.063846014 7.1999998 26
-0.28815836 1.3616667 0.063139781 7 53
-0.20485215 1.3616672 0.062687777 2 48
-0.077348411 1.3616673 0.065903425 17.526316 40
-0.061856546 1.3616674 0.065410092 14 39
0.077359453 1.3616667 0.065777585 0 30
0.13961777 1.3616667 0.068488196 4 26
0.14024352 1.3616667 0.064537391 4 26
-0.35700005 1.3716667 0.066393778 6 57
-0.32182604 1.3716663 0.065790102 0 55
-0.30464023 1.3716663 0.065260544 26 54
-0.20478044 1.3716668 0.062998436 2 48
-0.18816006 1.3716667 0.064776435 18 47
-0.077210292 1.3716664 0.067482173 16.111111 40
-0.061796468 1.3716664 0.066269092 12.444445 39
-0.37449405 1.3816667 0.067747228 19.555555 58
-0.32245657 1.3816667 0.06405779 0 55
-0.3045283 1.3816667 0.065585531 26.25 54
-0.18822937 1.3816667 0.064450361 20.666666 47
-0.17215966 1.3816671 0.064315192 0.19047619 46
-0.15630193 1.3816665 0.063567512 15.857142 45
-0.12479186 1.3816667 0.062059656 25.333334 43
-0.077365242 1.3816665 0.065711156 11.833333 40
-0.061804224 1.3816665 0.06615825 16.833334 39
0.046422008 1.3816667 0.064215556 22 32
0.06187401 1.3816667 0.065160647 16 31
-0.37588328 1.3916665 0.064474322 9.25 58
-0.1871205 1.3916667 0.069667175 22 47
-0.17215739 1.3916667 0.064326882 1 46
-0.15619652 1.3916667 0.064165443 16 45
-0.12461557 1.3916667 0.063313946 25.200001 43
-0.077551164 1.3914297 0.063585937 4.4000001 40
-0.062069297 1.3914299 0.062367499 26.799999 39
0.030886069 1.3916667 0.065539107 2 33
0.046265002 1.3916667 0.067211449 23 32
0.061769374 1.3916667 0.066657022 15 31
0.15524149 1.3916667 0.069581881 6 25
0.17244364 1.3916667 0.062854469 6.5 24
-0.37490651 1.4016666 0.06677559 2.3333333 58
-0.15583956 1.4016664 0.066189751 0 45
0.030886069 1.4016666 0.065539137 2 33
0.046160329 1.4016666 0.069208696 14 32
0.17201433 1.4016666 0.065063134 10 24
0.18821205 1.4016664 0.0645319 4 23
-0.15600117 1.4116668 0.06527333 0 45
-0.13938309 1.4116666 0.069969729 28 44
0.01543529 1.4119257 0.065713637 15.473684 34
0.18847196 1.4116666 0.063309208 4.5 23
0.20470548 1.4116666 0.063323215 2 22
0.21978605 1.4116666 0.068486348 2 21
0.22034249 1.4116666 0.066254631 4.8000002 21
0.23700766 1.4116668 0.065475382 0.90909094 20
0.25450519 1.4116668 0.062435031 4.2222223 19
0.27136967 1.4116668 0.06238981 5.3333335 18
0.28831288 1.4116666 0.06266427 4.8000002 17
-0.13938309 1.4216666 0.069969729 28 44
0.015451212 1.4216666 0.064801492 16 34
0.092838705 1.4216667 0.066698812 4.25 29
0.10841294 1.4216667 0.067047492 30 28
0.20448053 1.4216666 0.064297602 9 22
0.21978605 1.4216666 0.068486348 6 21
0.22095533 1.4216666 0.063796572 2.6666667 21
0.23768218 1.4216666 0.062958114 4.6666665 20
0.25386202 1.4216666 0.064677969 2.6666667 19
0.27015147 1.4216666 0.066374376 4 18
0.2871798 1.4216666 0.066151477 2.6666667 17
0.30408067 1.4216666 0.066885665 7 16
-0.14058988 1.4316665 0.062350351 21.714285 44
-0.13965686 1.4316666 0.068241209 20 44
-0.12446051 1.4316665 0.064417385 16 43
0.015425035 1.4316665 0.066301264 1.6666666 34
0.092990533 1.4316669 0.065254375 4.3809524 29
0.10845635 1.431667 0.066694096 24.969696 28
-0.25366512 1.4416666 0.065364584 0 51
-0.23725079 1.4416666 0.064567983 19 50
-0.14063458 1.4416666 0.062068161 22.666666 44
-0.13953952 1.4416666 0.06898196 20 44
-0.12404298 1.4416666 0.067388192 16.571428 43
0.015427943 1.4416666 0.066134647 2 34
0.09290491 1.4416666 0.066068925 4.8000002 29
0.1085914 1.4416662 0.065594114 24.952381 28
-0.25331074 1.4516667 0.066600464 0 51
-0.23749882 1.4516667 0.063642293 17.5 50
-0.14042598 1.4516665 0.063385122 2 44
-0.13959168 1.4516665 0.068652742 2 44
-0.12426168 1.4516667 0.065832071 22.857143 43
-0.015471126 1.4516664 0.063658819 18.285715 36
1.5740181e-08 1.4516664 0.063523807 17.047619 35
0.092735216 1.4516665 0.067683578 28.82353 29
0.10843326 1.4516666 0.066882074 22.5 28
-0.37638062 1.4616662 0.063302778 4.090909 58
-0.25382262 1.4616667 0.064815275 0 51
-0.23717529 1.4616663 0.064849705 14.25 50
-0.14047813 1.4616666 0.063055858 2 44
-0.12428156 1.4616666 0.065690592 23 43
-0.015474451 1.4616665 0.063468374 18.5 36
1.5743565e-08 1.4616665 0.063333333 17 35
0.077190958 1.4616666 0.06770356 8 30
0.092776485 1.4616667 0.067290783 28.571428 29
0.10862622 1.4616666 0.065310553 20 28
0.20425557 1.4616666 0.065271989 15 22
0.21950382 1.4616666 0.069618337 2 21
0.2209231 1.4616665 0.063925929 2.8 21
0.23749883 1.4616666 0.063642323 2 20
0.25248384 1.4616666 0.069484308 2 19
0.26971292 1.4616666 0.067808881 5 18
0.27083367 1.4616666 0.064143039 4 18
0.28687081 1.4616666 0.067102544 4 17
0.30424348 1.4616663 0.066412903 4 16
-0.37578565 1.4716665 0.064704448 4 58
-0.25362083 1.4716665 0.065519057 0 51
-0.23707104 1.4716672 0.065238766 18.555555 50
-0.20425554 1.4716667 0.065271989 4 48
0.077411756 1.4716666 0.065179862 7.5999999 30
0.092842199 1.4716666 0.066665664 27.6 29
0.10809813 1.4716666 0.069611564 14 28
0.18774427 1.4716667 0.066732697 6 23
0.20425558 1.4716665 0.065271974 10 22
0.21974574 1.4716667 0.068648078 2 21
0.22095536 1.4716667 0.063796572 4.6666665 21
0.23798412 1.4716666 0.061831221 3 20
0.27132094 1.4716666 0.062549219 6 18
0.28893089 1.4716666 0.060762178 6 17
0.30342951 1.4716666 0.068776742 2 16
-0.37510186 1.4816667 0.066315368 22 58
-0.25400484 1.4816667 0.064179532 0 51
-0.2370351 1.4816667 0.065372914 22.666666 50
-0.22107936 1.4816667 0.06329897 20.692308 49
-0.21982634 1.4816667 0.06832464 20.666666 49
-0.20470543 1.4816667 0.06332323 2.2222223 48
-0.18732843 1.4816667 0.068689004 23 47
-0.077612177 1.4816667 0.062888607 18 40
-0.061943732 1.4816667 0.064163104 10 39
0.046531036 1.4816667 0.062135104 25 32
0.077742942 1.4816667 0.061394285 6 30
0.092916004 1.4816712 0.065963298 24.3125 29
0.17218924 1.4816667 0.064163268 4.6666665 24
0.1880215 1.4816667 0.065428533 16 23
-0.25368723 1.4916658 0.065287553 0.24390244 51
-0.22115114 1.4914939 0.063011073 19.428572 49
-0.2198465 1.4916667 0.068243787 19.5 49
-0.20441303 1.4916667 0.064589918 2 48
-0.18813036 1.4916667 0.064916149 26.571428 47
-0.1720143 1.4916667 0.065063104 6 46
-0.077241763 1.4916667 0.06712243 15 40
-0.061821658 1.4916667 0.065908849 17 39
0.030880561 1.4916942 0.06569691 6 33
0.046511281 1.4916667 0.062512033 26.941177 32
0.077132843 1.4916667 0.068367735 16 30
0.092840292 1.4916667 0.066683739 24.363636 29
0.1718235 1.4916667 0.066044725 4 24
-0.32252499 1.5016667 0.063869849 12 55
-0.25362462 1.5016669 0.065505721 1.9444444 51
-0.17144185 1.5016667 0.068007991 25 46
-0.092978053 1.5016667 0.06537278 4 41
0.030871112 1.5016668 0.065967418 12.857142 33
0.046422008 1.5016667 0.064215556 28 32
0.10895121 1.5016667 0.062663749 23.333334 28
-0.30342948 1.5116667 0.068776682 4 54
-0.25379309 1.5116663 0.064918295 9.7222223 51
-0.17165177 1.5116667 0.066928171 24 46
-0.092957146 1.5116665 0.065571681 14.6 41
-0.04635394 1.5116669 0.06551379 6.6999998 38
0.10913401 1.5116667 0.061174911 23 28
0.15570454 1.5116667 0.066955738 6 25
-0.30489457 1.5216666 0.064521894 12 54
-0.25368971 1.5216666 0.065278754 13.25 51
-0.15596761 1.5216666 0.06546358 4 45
-0.092681892 1.5216666 0.06819059 18 41
-0.046476934 1.521667 0.063167021 14.6 38
0.015456061 1.5218441 0.064523786 4.6666665 34
0.15579715 1.5216666 0.066430494 9.1999998 25
-0.27044383 1.5316666 0.065418079 4 52
-0.26985905 1.5316666 0.067330733 4 52
-0.15637016 1.5316666 0.063180611 8.5 45
-0.1403217 1.5316666 0.064043537 6 44
-0.13961774 1.5316666 0.068488136 4 44
-0.12386404 1.5316666 0.068661407 8 43
-0.046421975 1.5316666 0.064215578 18 38
1.5705094e-08 1.5316666 0.065500006 3 35
0.015457031 1.5316666 0.064468227 4.6666665 34
0.12466819 1.5316666 0.062939875 6.6666665 27
0.13946134 1.5316666 0.069475845 2 26
0.14044464 1.5316665 0.063267522 2.8571429 26
0.15623996 1.5316666 0.063919231 15.5 25
-0.030886039 1.5416666 0.065539137 4 37
0.12447295 1.5416667 0.064328991 6 27
0.13969597 1.5416666 0.067994311 2.4000001 26
0.14026958 1.5416666 0.064372793 3.3333333 26
-0.26898196 1.3416666 0.070199624 2 52
-0.25165689 1.3416666 0.0723681 4 51
-0.2341018 1.3416666 0.076320067 7 50
-0.21821353 1.3416666 0.074793264 2 49
-0.10752724 1.34174 0.074260831 2.3157895 42
-0.091671437 1.3416665 0.077804312 2 41
0.092194125 1.3416666 0.072831646 0 29
0.1075169 1.3416667 0.074345246 14.230769 28
0.12291072 1.3416667 0.07544475 0 27
0.13891383 1.3416666 0.072932735 12 26
-0.28545445 1.3516666 0.071461543 6.5 53
-0.20143431 1.3517209 0.0774922 16.25 48
-0.10761062 1.3516666 0.07358174 2 42
-0.091619179 1.3516666 0.078301594 2 41
-0.076958507 1.3516666 0.070360079 18.666666 40
0.076763317 1.3517188 0.072591551 0.56 30
0.091845691 1.3516666 0.076146774 0 29
0.10731815 1.3516666 0.075963832 12.4 28
0.12295945 1.3516666 0.075098172 0 27
0.13855009 1.3516663 0.075229146 3.6500001 26
-0.28336856 1.3616667 0.077881157 9.5 53
-0.20183104 1.3616667 0.075773507 13.111111 48
-0.076664604 1.3616674 0.073719345 17.39535 40
-0.061324656 1.3616674 0.073016502 13.55 39
0.076392025 1.3616667 0.076835379 0 30
0.13836631 1.3615752 0.076389655 2.5 26
-0.35250479 1.3716667 0.077520028 0 57
-0.33543238 1.3716667 0.076168731 4 56
-0.32013083 1.3716668 0.070447691 0 55
-0.31840587 1.3716663 0.075187027 0.69565219 55
-0.30197924 1.3716668 0.072988525 25.272728 54
-0.29984826 1.3716667 0.079177395 10 54
-0.2021185 1.3716667 0.0745285 2 48
-0.076559767 1.3716662 0.074917682 15.65 40
-0.061249416 1.3717116 0.074092358 12.511628 39
-0.37150714 1.3816664 0.074783966 20.1 58
-0.36963162 1.3816667 0.079202428 20.5 58
-0.31845185 1.3816665 0.075060725 0 55
-0.30166212 1.3816668 0.073909484 19.714285 54
-0.29984826 1.3816667 0.079177395 20 54
-0.18567379 1.3816663 0.076473452 19.166666 47
-0.17071044 1.3816667 0.071770884 0 46
-0.076473601 1.3816673 0.075902566 14.581819 40
-0.061176423 1.3816673 0.075136326 14.5 39
0.04584109 1.3816667 0.075300418 21.533333 32
0.061119605 1.3816665 0.075949162 14.074074 31
0.15437324 1.3816667 0.07450594 18 25
-0.37171555 1.3914691 0.07429304 17 58
-0.18642747 1.3916668 0.072927646 22 47
-0.17032881 1.3916668 0.073734142 1.3333334 46
-0.16943838 1.3916667 0.078315035 0 46
-0.15443109 1.3916668 0.074177638 15.333333 45
-0.07652273 1.3916665 0.075341038 13.5 40
-0.061219342 1.3916665 0.074522428 16.307692 39
0.030519621 1.3916665 0.076032713 2 33
0.04579398 1.3912719 0.076199166 21.333334 32
0.061315954 1.3913707 0.073141173 14.5 31
0.1695338 1.3916667 0.07782425 1 24
0.17032884 1.3916668 0.073734142 6 24
-0.37262723 1.4016666 0.072145201 2.6666667 58
-0.15446252 1.4017408 0.073999442 0 45
0.03047891 1.4016666 0.077198677 2 33
0.061525226 1.4016666 0.070148483 2 31
0.153505 1.4016666 0.079429939 6 25
0.17020164 1.4016666 0.074388519 4 24
0.18623111 1.4016666 0.073851466 4.2222223 23
-0.37080383 1.4116665 0.076440886 3.3333333 58
-0.23371358 1.4116666 0.077768996 6 50
-0.15424918 1.4116668 0.075209327 0 45
-0.13819028 1.4116668 0.077500805 28 44
0.01529705 1.4116668 0.073633507 15.076923 34
0.1862369 1.4116666 0.073824286 3.5 23
0.20166862 1.4116666 0.076477244 14 22
0.21818939 1.4116668 0.074890286 1.2 21
0.23552535 1.4116666 0.071007505 0 20
-0.25014091 1.4216666 0.077655002 4 51
-0.23449004 1.4216666 0.074871197 7.3333335 50
-0.15385228 1.4216666 0.077460334 0 45
-0.13834019 1.4216666 0.076554269 28.666666 44
0.015307714 1.4216666 0.073022492 15.333333 34
0.092056744 1.4217669 0.074138775 4.3428574 29
0.1074409 1.4217294 0.07496421 25.678572 28
0.12261152 1.4216666 0.077573851 0 27
0.20170613 1.4216666 0.076314844 9.333333 22
0.21789099 1.4216666 0.076087013 1.3333334 21
0.25083002 1.4216666 0.075251833 2 19
0.26868963 1.4216666 0.071155936 5 18
0.28553173 1.4216666 0.071223751 2 17
-0.24972743 1.4316666 0.079096869 0 51
-0.2339724 1.4316666 0.076803058 12.5 50
0.015281137 1.4320903 0.074545115 2 34
0.092103831 1.4316669 0.073690578 5.6363635 29
0.10744003 1.4316657 0.074971311 21.84 28
0.12233317 1.4316666 0.079554394 0 27
-0.2509875 1.4416666 0.074702553 0.5714286 51
-0.24972743 1.4416666 0.079096869 0 51
-0.2345418 1.4416666 0.074678004 20 50
-0.13866796 1.4416666 0.074484825 17.428572 44
-0.12257172 1.4416666 0.077856742 16 43
0.015246438 1.4416666 0.076533064 2 34
0.091671474 1.4416666 0.077804305 10 29
0.10731725 1.4416661 0.075971223 23.629629 28
-0.25069216 1.4516667 0.075732492 0 51
-0.24972743 1.4516666 0.079096869 0 51
-0.23437503 1.4516667 0.075300485 16.666666 50
-0.13849662 1.4516667 0.075566575 3.5555556 44
-0.12281392 1.4516667 0.076133437 17.09091 43
-0.015298764 1.4516667 0.073533505 15.8 36
1.5564821e-08 1.4516667 0.073399991 12.6 35
0.09203732 1.4516667 0.07432346 27.6 29
0.10736109 1.4516664 0.07561411 24.380953 28
-0.3731482 1.4616666 0.07091786 4 58
-0.25187743 1.4616665 0.071599074 0 51
-0.24972743 1.4616666 0.079096869 0 51
-0.23443031 1.4616663 0.075094074 18 50
-0.13850705 1.4616666 0.075500727 2 44
-0.1230986 1.4616666 0.0741079 23.5 43
-0.015288291 1.4616666 0.074133419 16.4 36
1.5554168e-08 1.4616666 0.074000001 16 35
0.076435596 1.4616662 0.07633727 7.9259257 30
0.091803677 1.4616662 0.076546535 28.117647 29
0.10735583 1.4616665 0.07565707 21.454546 28
0.20182081 1.4616663 0.075818107 8.4705887 22
0.21796013 1.4616663 0.075809769 2 21
0.23431298 1.4616663 0.075532101 1.5789474 20
0.24972746 1.4616666 0.079096869 4 19
0.25165695 1.4616666 0.072368085 2.5 19
0.26770288 1.4616666 0.074383467 5 18
0.28363007 1.4616663 0.077076428 4.3076925 17
0.29984829 1.4616666 0.079177395 2 16
0.30128083 1.4616663 0.075017102 2.8 16
-0.36963162 1.4716666 0.079202428 18 58
-0.25119749 1.4722117 0.073970176 0 51
-0.23461944 1.4716673 0.074388243 19.380953 50
-0.20180357 1.4716665 0.075892605 3.4000001 48
0.076566339 1.4716665 0.07484296 7.25 30
0.091895469 1.4716665 0.075673178 27.714285 29
0.10748878 1.4716666 0.074574247 16 28
0.1858107 1.4716665 0.075829498 9.1999998 23
0.20313081 1.4716666 0.070143834 8 22
0.21797164 1.4716666 0.075763561 1.6 21
0.23384303 1.4716666 0.07728605 2 20
0.25200149 1.4716666 0.0711665 3.5 19
0.26671609 1.4716666 0.077610984 5 18
0.29984829 1.4716666 0.079177395 0 16
0.3012808 1.4716666 0.07501711 2.8 16
-0.37197602 1.4816667 0.073679343 22 58
-0.25126308 1.4816667 0.073741309 0 51
-0.24972743 1.4816667 0.079096869 0 51
-0.23516944 1.4816667 0.072335623 23 50
-0.21840706 1.4816667 0.074017026 16.4 49
-0.20301831 1.4816667 0.070631012 2 48
-0.18560737 1.4816667 0.076785907 22.555555 47
-0.060897388 1.4816667 0.079126552 14 39
0.045977153 1.4816667 0.072703972 28 32
0.092047766 1.4816667 0.07422401 24.9 29
0.18545724 1.4816667 0.077492371 14 23
-0.35425296 1.4916667 0.073193125 2.6666667 57
-0.33435729 1.4916667 0.078969434 0 56
-0.31910479 1.4916667 0.07326676 7 55
-0.25102785 1.4916658 0.074561723 1.4358975 51
-0.24972743 1.4916667 0.079096869 2 51
-0.23371358 1.4916667 0.077768996 10 50
-0.21849577 1.4916667 0.073661245 18.666666 49
-0.20268089 1.4916667 0.07209257 2 48
-0.18569483 1.4916667 0.076374471 22 47
-0.076784194 1.4916667 0.072352484 17 40
-0.061455436 1.4916667 0.071146086 14 39
0.030571973 1.4916667 0.074533634 6 33
0.045761265 1.4916667 0.076823324 27.75 32
0.061060179 1.4916667 0.076798908 2 31
0.092112817 1.4916667 0.073605187 24.666666 29
-0.35475242 1.5016667 0.071956888 8 57
-0.31750867 1.5016667 0.077652015 10.666667 55
-0.25125459 1.5016364 0.073771007 3.8378379 51
-0.24972743 1.5016667 0.079096869 4 51
-0.17037971 1.5016669 0.073472366 20.933332 46
-0.16952512 1.5016669 0.077868842 22.727272 46
-0.091985032 1.5016667 0.074820727 4 41
0.030676674 1.5016667 0.071535483 6 33
0.045846313 1.5016667 0.075200543 28 32
0.10748878 1.5016667 0.074574247 10 28
-0.25114611 1.5116663 0.074149236 6.7647057 51
-0.24972743 1.5116667 0.079096869 6 51
-0.17048782 1.5116667 0.072916098 23.333334 46
-0.16962917 1.5116667 0.077333406 22.666666 46
-0.091884851 1.5116668 0.075773813 15.416667 41
-0.04590404 1.5116665 0.07409858 9.6551723 38
0.15434845 1.5116667 0.074646592 6.8571429 25
-0.2665942 1.5216666 0.078009434 4.3333335 52
-0.25082999 1.5216666 0.075251848 12 51
-0.24972743 1.5216666 0.079096869 11 51
-0.15423022 1.5216669 0.075316921 4 45
-0.10712314 1.5216666 0.077551916 4 42
-0.092019878 1.5216666 0.074489206 16.666666 41
-0.045905158 1.5216666 0.074077055 10.5 38
0.015322065 1.5216669 0.072200388 4.4000001 34
0.15421887 1.521667 0.075381294 11.703704 25
-0.2855317 1.5316666 0.071223781 4 53
-0.26620442 1.5316666 0.079284504 5 52
-0.15385228 1.5316666 0.077460334 4 45
-0.13867915 1.5316666 0.074414298 4 44
-0.12316818 1.5316666 0.073612764 6 43
-0.10785435 1.5316666 0.071596667 4 42
-0.04587245 1.5316666 0.074701235 17 38
-0.030711541 1.5316666 0.070536092 4 37
0.015292687 1.5316666 0.073883459 4.5 34
0.12319141 1.5316666 0.073447712 5.6666665 27
0.13853839 1.5316666 0.075303182 2.8 26
0.15441665 1.5316666 0.074259698 15 25
-0.015358102 1.5416666 0.070134059 28 36
0.12280636 1.5416666 0.076187469 6 27
0.13839237 1.5416666 0.076225035 2 26
-0.26357305 1.3416666 0.087891266 6 52
-0.24807359 1.3416666 0.084864512 2 51
-0.23241949 1.3416666 0.082598582 4 50
-0.10646504 1.3416666 0.082911693 2 42
-0.090853147 1.3416668 0.085589997 2 41
-0.045165915 1.3416666 0.088182762 0 38
-0.030118249 1.3416666 0.08752574 6 37
0.10622948 1.3416667 0.084830634 6.25 28
0.12181127 1.342014 0.08326786 0 27
-0.2824415 1.3516666 0.080734387 14 53
-0.20044324 1.3516669 0.081785001 16 48
-0.19959405 1.3516669 0.085463092 16 48
-0.10651379 1.3516666 0.082514681 2 42
-0.090842195 1.3516668 0.085694171 2 41
0.075629413 1.3516666 0.085552067 7 30
0.090521663 1.3516666 0.088744059 0 29
0.10633102 1.3516666 0.084003486 7.6666665 28
0.12189245 1.3516666 0.082690187 0.33333334 27
0.13724825 1.3516668 0.08344873 3.2941177 26
-0.28120545 1.3616667 0.084538594 12 53
-0.27966034 1.3616667 0.089293852 10 53
-0.20020641 1.3616667 0.082810655 16 48
-0.19940658 1.3616667 0.086275056 13.333333 48
-0.075847268 1.3616667 0.083061561 17 40
-0.060641613 1.3616667 0.082784332 14.666667 39
0.075665727 1.3616667 0.085136972 3.6666667 30
0.13688017 1.3616667 0.085772708 2.5 26
-0.31465852 1.3716668 0.085482776 3.3333333 55
-0.2973251 1.3716668 0.08650513 13.5 54
-0.2002814 1.3716666 0.08248587 2 48
-0.19910122 1.3716663 0.087597765 2 48
-0.075892523 1.3718166 0.082544312 15.692307 40
-0.060695093 1.3716668 0.082019523 12.4 39
-0.3677184 1.3816667 0.083709709 19.379311 58
-0.31557056 1.3816667 0.08297693 0 55
-0.29680964 1.3816667 0.088002205 12 54
-0.20065632 1.3816667 0.080861881 2 48
-0.1989973 1.3816667 0.08804787 2 48
-0.1842258 1.3816789 0.083285987 18.923077 47
-0.075870946 1.3816867 0.082790874 14.26087 40
-0.06069858 1.3816897 0.081969641 15.3 39
0.045418665 1.3816669 0.083360799 22 32
0.060552854 1.3816668 0.084053949 13.818182 31
-0.36793843 1.3916668 0.083191253 22 58
-0.29691815 1.3916667 0.08768703 10 54
-0.18412064 1.3916665 0.083780415 18.857143 47
-0.16848433 1.3916667 0.083223179 0 46
-0.15289721 1.3916667 0.082876757 12 45
-0.075651176 1.3916667 0.085302994 14.4 40
-0.060461409 1.3916667 0.085361362 14.5 39
0.030225473 1.3916665 0.084456161 2 33
0.045296784 1.3916665 0.085686177 21.333334 32
0.060583513 1.3916665 0.083615631 13.333333 31
0.15194216 1.3916667 0.08829321 6 25
0.16810274 1.3916667 0.085186496 2 24
-0.36691427 1.4016666 0.085604116 3.6363637 58
-0.15274093 1.4016666 0.0837631 1.2 45
-0.075607598 1.4016666 0.08580111 4 40
-0.060513727 1.4016666 0.084613189 18 39
0.030179355 1.4016666 0.085776806 2 33
0.045270618 1.4016666 0.08618547 18 32
0.060339365 1.4016666 0.087107077 2 31
0.15237629 1.4016666 0.08583121 6 25
0.16772111 1.4016666 0.087149739 1.3333334 24
0.18441769 1.4016666 0.082383052 4 23
-0.3674826 1.4116666 0.084265158 3 58
-0.24724668 1.4116666 0.087748259 4 51
-0.23108841 1.4116668 0.087566234 5.8571429 50
-0.15244138 1.4116668 0.085461892 0 45
-0.13732336 1.4116668 0.082974248 28 44
-0.12094141 1.4116666 0.08945705 16 43
0.015134162 1.4116668 0.082965411 15 34
0.19925039 1.4116668 0.08695171 8.5 22
0.21579435 1.4116668 0.0844962 0 21
-0.24724671 1.4216669 0.087748259 4.1176472 51
-0.2314548 1.4216664 0.086198889 7.5151515 50
-0.15211578 1.4216666 0.087308399 0 45
-0.13714087 1.4216666 0.084126569 28 44
0.015123981 1.4216667 0.083548643 13.333333 34
0.091148838 1.4216666 0.082776889 4 29
0.10640819 1.421666 0.083374918 19.244444 28
0.12136377 1.4216665 0.086452097 0 27
0.19930664 1.4216666 0.086708114 1 22
0.21627818 1.4216666 0.082555607 0 21
0.23241952 1.4216666 0.082598612 0 20
0.24798174 1.4216666 0.085184895 2 19
0.28027841 1.4216666 0.087391749 2 17
0.2975693 1.4216666 0.085796073 6 16
-0.24785706 1.4316666 0.08561974 2.5714285 51
-0.23146383 1.4316666 0.086165085 10.769231 50
0.01511006 1.4316666 0.084346153 4.1428571 34
0.090765558 1.4316665 0.086423486 8.833333 29
0.1062853 1.4318919 0.084375724 24.75 28
0.1213463 1.4316665 0.086576268 0 27
0.29626703 1.4316666 0.089578107 8 16
-0.24792045 1.4416662 0.08539851 0.22222222 51
-0.23153952 1.4416666 0.085882761 18.4 50
-0.13686855 1.4416661 0.08584588 14.222222 44
-0.12149809 1.441666 0.085495979 16 43
0.015133433 1.4416666 0.083007075 2 34
0.090718657 1.4416661 0.086869769 20.076923 29
0.10627495 1.4416661 0.084460065 27.6 28
0.12173009 1.4416666 0.083845533 0 27
-0.36615413 1.4516667 0.087394901 6 58
-0.24825077 1.4516666 0.084246516 0.71428573 51
-0.23103911 1.4516667 0.087750204 17 50
-0.13696438 1.4516666 0.085240871 9.0769234 44
-0.12128238 1.4516664 0.087030895 13 43
-0.015148673 1.4516666 0.082132235 14 36
1.5412121e-08 1.4516666 0.082000032 12 35
0.09087009 1.4516667 0.085428961 24.333334 29
0.10608728 1.4516664 0.085988611 28.363636 28
-0.36704305 1.4616666 0.085300729 6 58
-0.24780945 1.4616662 0.085785687 0.083333336 51
-0.2313254 1.4616662 0.086681835 17.454546 50
-0.21547174 1.4616666 0.085789956 4 49
-0.13672371 1.4616666 0.086760402 4.5 44
-0.12132414 1.4616666 0.086733803 12.25 43
-0.015137039 1.4616666 0.082798772 9.333333 36
1.5400284e-08 1.4616666 0.082666673 6.6666665 35
0.075806148 1.4616662 0.083532013 7.5555553 30
0.090964168 1.4616662 0.084533915 28.066668 29
0.10623962 1.4616665 0.084747903 25 28
0.1990817 1.4616662 0.087682478 4.181818 22
0.21542113 1.4618478 0.085993245 1.2 21
0.23141797 1.4618046 0.08633633 0.43478259 20
0.24777548 1.4617964 0.085904241 1.1020408 19
0.26376426 1.4616662 0.087265976 3.3846154 18
0.27983698 1.4616667 0.088750415 4 17
0.28118831 1.4616663 0.084591419 4.3333335 17
0.29766896 1.4616667 0.085506618 2.8163266 16
-0.36668336 1.4716665 0.086148024 18 58
-0.24827051 1.4716665 0.084177852 0 51
-0.2317142 1.4716673 0.08523076 14.65 50
-0.21543141 1.4716665 0.085951649 4 49
-0.2002964 1.4716666 0.082420908 3.2 48
-0.19898525 1.4716665 0.088100068 2.5714285 48
0.075687505 1.4716665 0.084887929 8.833333 30
0.090861388 1.4716665 0.085511856 27.666666 29
0.10633102 1.4716666 0.084003493 15 28
0.18360919 1.4716668 0.08618699 8.0740738 23
0.19885674 1.4716666 0.088656858 4 22
0.20035641 1.4716667 0.082161084 6.6666665 22
0.21492343 1.4716666 0.087989271 1.2 21
0.23155677 1.4716665 0.085818373 0.66666669 20
0.24766019 1.4716665 0.086306371 1 19
0.26357311 1.4716665 0.087891258 2.75 18
0.27976337 1.4716667 0.088976882 4 17
0.28142619 1.4716665 0.083859265 4.5714288 17
0.29815069 1.4716665 0.084107615 3.1428571 16
-0.36800361 1.4816667 0.083037831 19.333334 58
-0.24791282 1.4816667 0.085425206 0 51
-0.23218942 1.4816667 0.083457202 10.666667 50
-0.21545562 1.4816667 0.085854612 8.8000002 49
-0.20065632 1.4816667 0.080861881 4 48
-0.19930661 1.4816667 0.086708114 2 48
-0.18379395 1.4816667 0.085317522 19.82353 47
-0.076043367 1.4816667 0.080820128 11 40
-0.060827628 1.4816667 0.080124155 6 39
0.045254923 1.4816667 0.086485073 30.200001 32
0.060478881 1.4816667 0.085111961 2 31
0.075970776 1.4816667 0.081650294 15.333333 30
0.091148831 1.4816667 0.082776897 24 29
0.16886598 1.4816667 0.081259981 4 24
0.18400186 1.4816667 0.08433938 8.3999996 23
-0.35025716 1.4916667 0.083083108 2 57
-0.34875873 1.4916667 0.086791828 0 57
-0.33184871 1.4916667 0.085504547 0 56
-0.24848701 1.4916664 0.083422579 1.1666666 51
-0.18377078 1.4915996 0.085426196 19.888889 47
-0.16810271 1.4916667 0.085186496 6 46
-0.090645172 1.4916667 0.087568708 4 41
-0.06019982 1.4916667 0.089102224 16 39
0.030184202 1.4916667 0.085637972 14.222222 33
0.045380045 1.4915566 0.08409743 26.90909 32
0.060618389 1.4916667 0.083116844 2 31
0.090939775 1.4916667 0.084765926 26 29
0.16854794 1.4916667 0.082896009 3.3333333 24
-0.3329238 1.5016667 0.082703784 0 56
-0.31363246 1.5016667 0.088301852 4 55
-0.24837554 1.5017115 0.083811656 4.0952382 51
-0.16830181 1.5016669 0.084162138 20.695652 46
-0.090939745 1.5016667 0.084765956 4 41
-0.045263112 1.5016668 0.086328141 10.857142 38
0.030240431 1.5016667 0.084027864 14.666667 33
0.10590447 1.5016667 0.087477416 19.5 28
-0.29811192 1.5116667 0.084220149 3.3333333 54
-0.24816547 1.5116668 0.084544048 5.4444447 51
-0.16840801 1.5116665 0.083615847 20.4 46
-0.090954691 1.5116669 0.084623873 15.809524 41
-0.045349095 1.5116665 0.084687538 10.25 38
0.1057826 1.5116667 0.088469997 26 28
0.12101103 1.5116667 0.088961914 0 27
0.15256152 1.511929 0.084780738 7.1999998 25
-0.29740649 1.5216666 0.086268753 18 54
-0.2814458 1.5216666 0.083798856 2 53
-0.27984577 1.5216666 0.08872322 2.4000001 53
-0.26416999 1.521667 0.085938804 3.5 52
-0.24880862 1.5216666 0.082301117 4 51
-0.15243508 1.5216671 0.085497648 4.3225808 45
-0.13680795 1.5216668 0.086228557 3.6923077 44
-0.10615754 1.5216668 0.085415959 4 42
-0.091000728 1.5216666 0.084185801 15 41
-0.045343857 1.5216666 0.084787406 10.8 38
0.015051469 1.5216666 0.087702774 10.857142 34
0.12130982 1.5216671 0.086835757 0.7647059 27
0.15255833 1.5216671 0.084798761 12.193548 25
-0.28110242 1.5316666 0.084855579 2 53
-0.27966034 1.5316666 0.089293852 4 53
-0.26430398 1.5316666 0.085500509 3 52
-0.15270185 1.5316666 0.083984651 6 45
-0.13714087 1.5316666 0.084126554 5.3333335 44
-0.12135892 1.5316666 0.086486295 6 43
-0.10616559 1.5316666 0.085350513 4 42
-0.045427594 1.5316666 0.083189622 18 38
-0.030071719 1.5316666 0.088858269 4 37
-0.015105043 1.5316666 0.084631816 4 36
1.5376608e-08 1.5316666 0.084000006 4 35
0.015096349 1.5316666 0.085131742 10.6 34
0.12133577 1.5316663 0.086651288 4.9166665 27
0.13671069 1.5316666 0.086842708 2.6666667 26
0.15294932 1.5316666 0.082581326 14 25
-0.015043959 1.5416666 0.088131323 8 36
0.12159091 1.5416666 0.084835805 5.3333335 27
0.13700531 1.5416666 0.084982552 2.8 26
-0.24531722 1.3416666 0.094477132 2 51
-0.22905482 1.3416666 0.095155634 2.6666667 50
-0.21216547 1.3416666 0.099050656 3 49
-0.090222977 1.3420637 0.091585524 2 41
-0.089894466 1.3416666 0.094711147 2 41
-0.044694893 1.3416666 0.097170398 4 38
-0.029741338 1.3416666 0.098319113 2.8 37
0.10521388 1.3418519 0.093101822 2.1333334 28
-0.21240741 1.3516666 0.098080352 2 49
-0.19833183 1.3516666 0.09093038 16 48
-0.10475887 1.3516666 0.096807323 1.6 42
-0.090208046 1.3516666 0.091727629 2 41
-0.089789942 1.3516666 0.095705673 2 41
-0.04465564 1.3516666 0.097919375 2.5 38
-0.029751806 1.3516666 0.098019309 3 37
0.074589953 1.3516668 0.097433127 7.2941175 30
0.089633174 1.3516666 0.097197458 0 29
0.10480765 1.3516666 0.096410297 1.25 28
0.11954971 1.3516666 0.099359706 0 27
0.12052392 1.3516666 0.092427865 2 27
0.1357069 1.3516666 0.093180373 11 26
-0.27681053 1.3616667 0.098064698 12.444445 53
-0.19723314 1.3616674 0.095689297 9.478261 48
0.074640997 1.3616505 0.096849807 3.2727273 30
0.13555047 1.3616667 0.094168052 2 26
-0.34513751 1.3716668 0.095754601 1.3333334 57
-0.3275483 1.3716667 0.096707478 2 56
-0.31121546 1.3716666 0.094942354 6.9333334 55
-0.30974808 1.3716667 0.098974109 6.7142859 55
-0.29411209 1.3717127 0.09583655 10.523809 54
-0.27811527 1.3716666 0.094049156 12 53
-0.19771315 1.3716663 0.093609929 3.1111112 48
0.074779637 1.3716666 0.095264949 1.3333334 30
-0.3639009 1.3816667 0.092703141 18.666666 58
-0.34463805 1.3816667 0.096990868 0 57
-0.31093654 1.3816664 0.095708862 4.352941 55
-0.30971059 1.3816664 0.099077031 2.9333334 55
-0.29390115 1.3816676 0.096448831 9.2761908 54
-0.19733207 1.3816667 0.095260903 2 48
-0.18173143 1.3816664 0.095020764 13.52 47
-0.074982971 1.3816667 0.092940472 14.666667 40
-0.060060307 1.3816667 0.09109737 16 39
-0.059990551 1.3816667 0.092094913 15 39
0.045061272 1.3816667 0.090179995 22 32
0.059920829 1.3816667 0.093092456 14 31
0.06008824 1.3816667 0.090698346 13.6 31
0.15029252 1.3819001 0.097648874 12 25
-0.36240312 1.3916667 0.096231729 16 58
-0.3110331 1.3916667 0.095443524 2 55
-0.30975625 1.3916668 0.098951735 2 55
-0.29413998 1.3915876 0.095755473 9.0666666 54
-0.18141779 1.3916665 0.096496344 13.714286 47
-0.16638543 1.3916667 0.094021097 1 46
-0.15050954 1.3916665 0.096417889 10.1875 45
-0.074663408 1.3916668 0.096593201 8.666667 40
-0.060060307 1.3916667 0.09109737 18 39
-0.059606891 1.3916667 0.09758155 12 39
0.029816749 1.3916665 0.096160479 2 33
0.030013584 1.3916668 0.090523861 2 33
0.044865012 1.3916665 0.093924843 15.75 32
0.05979003 1.3916665 0.094962902 9 31
0.060095213 1.3916667 0.090598598 13 31
0.15063082 1.3918138 0.095730215 6.4137931 25
0.16714869 1.3916667 0.090094581 2 24
-0.36347494 1.4016659 0.093706563 3.891892 58
-0.165813 1.4016666 0.096965984 2 46
-0.15056451 1.4016666 0.096106023 8.2666664 45
0.029734386 1.4016666 0.09851902 2 33
0.044786509 1.4016666 0.095422804 11 32
0.059758063 1.4016666 0.095420144 10 31
0.1504951 1.4016666 0.096499942 6 25
0.16643316 1.4016666 0.09377569 2 24
0.18088318 1.4016666 0.099011615 10 23
-0.36352646 1.4116668 0.093585275 4 58
-0.24497274 1.4116668 0.09567868 4 51
-0.23029716 1.4116666 0.090519205 5.1999998 50
-0.22873566 1.4116668 0.096346959 5.8666668 50
-0.15082011 1.4116668 0.094656587 0.30769232 45
-0.12037401 1.4116668 0.093494289 16.153847 43
-0.11991501 1.4116668 0.09676028 16 43
0.014991633 1.4116666 0.091130808 14 34
0.10444204 1.4116666 0.099387959 6 28
0.18157621 1.4116668 0.095751099 5.3333335 23
0.19749041 1.4116668 0.094575271 4.8888888 22
-0.24514997 1.4216665 0.095060743 3.7142856 51
-0.23018967 1.4216669 0.090920411 7.8461537 50
-0.22898842 1.4216661 0.095403336 7.9487181 50
-0.15054882 1.4217499 0.096195117 0 45
-0.12038472 1.4216666 0.093418099 16 43
-0.11968886 1.4216666 0.098369457 16 43
0.014920306 1.4216669 0.095217176 10.086957 34
0.08968544 1.4216666 0.096700206 4 29
0.1052429 1.4216665 0.092865504 18 28
0.11982805 1.4216666 0.097379193 0 27
0.1204593 1.4216665 0.092887625 0 27
0.197597 1.4216667 0.094113328 4.4000001 22
0.21248807 1.4216666 0.097756922 0 21
0.22827841 1.4216666 0.098053418 0 20
0.24458222 1.4216666 0.097040474 2 19
0.25991845 1.4216666 0.099845067 8 18
0.26138031 1.4216666 0.095063567 6 18
0.27731186 1.4216666 0.096521892 2.4000001 17
0.29336134 1.4217541 0.09801688 11.25 16
-0.24521224 1.4316669 0.094843306 2.9523809 51
-0.23034893 1.4316666 0.090326026 12 50
-0.22885691 1.4316667 0.095894299 15.529411 50
-0.15041789 1.4316665 0.096937627 0 45
0.014925931 1.4316667 0.094894961 5.8823528 34
0.089586124 1.4320269 0.097645015 8 29
0.090219691 1.4316665 0.0916171 7.5555553 29
0.1050688 1.4316665 0.094283417 30 28
0.11978712 1.4316667 0.097670458 0 27
0.12064321 1.4316665 0.091579057 0 27
0.27626121 1.4316666 0.099755481 10 17
0.29373482 1.4316665 0.096932128 10.222222 16
-0.24490377 1.4416666 0.095918991 3.2 51
-0.23034893 1.4416666 0.090326026 16 50
-0.22877984 1.4416664 0.096181944 19.625 50
-0.13540867 1.4418443 0.095063165 14 44
-0.12047751 1.4419833 0.092757933 15.888889 43
-0.11988021 1.4416666 0.097007841 16 43
0.014930549 1.4416666 0.094630316 2 34
0.089732952 1.4416666 0.09624815 12.181818 29
0.090173244 1.4416666 0.092059106 19 29
0.10492952 1.4416666 0.095417745 29 28
0.1196193 1.4416666 0.09886457 0 27
0.12024558 1.4416666 0.094408348 0 27
-0.36355472 1.4518789 0.093518667 6.1052632 58
-0.24488078 1.4516667 0.095999092 0.83333331 51
-0.22891106 1.4516667 0.095692255 17.333334 50
-0.13535219 1.451667 0.095419891 8.5581398 44
-0.12032421 1.4516662 0.093848675 11.913043 43
-0.11980661 1.4516666 0.097531527 10.307693 43
-0.014851983 1.4516666 0.099129632 4 36
1.511027e-08 1.4516666 0.098999992 2 35
0.089554779 1.4516666 0.097943366 28.5 29
0.090242922 1.4516665 0.091396116 26 29
0.10501657 1.4516666 0.094708785 28.571428 28
0.29301134 1.4516666 0.099033311 3 16
-0.36342877 1.4616663 0.093815416 6 58
-0.24524063 1.4616663 0.094744116 0.22222222 51
-0.23023801 1.4616667 0.090739973 19.428572 50
-0.22883686 1.4618335 0.095969066 16.31579 50
-0.13562866 1.4616666 0.093674205 5.3333335 44
-0.1204891 1.4616666 0.092675403 8 43
-0.11971669 1.4616666 0.098171391 8.8000002 43
-0.014875252 1.4616666 0.097796492 4.3333335 36
1.5133944e-08 1.4616666 0.097666658 2.6666667 35
0.074675046 1.4616666 0.096460387 8 30
0.089580908 1.4616666 0.09769474 27.6 29
0.09015581 1.4616666 0.092224881 29 29
0.10480765 1.4616666 0.096410312 24.666666 28
0.19738902 1.4617715 0.095014229 3.5081968 22
0.21361703 1.4616662 0.093228891 0.17142858 21
0.22910659 1.4616663 0.094962463 0.1 20
0.23021954 1.4616666 0.090808965 0 20
0.2457248 1.4616665 0.093056098 0.043478262 19
0.25991845 1.4616666 0.099845067 6 18
0.26180485 1.4617548 0.093674965 1.7534246 18
0.27778962 1.4617536 0.095051609 3.5135136 17
0.29463062 1.4618335 0.094330579 3.4210527 16
-0.36284411 1.4716672 0.095192879 17.428572 58
-0.24531722 1.4716665 0.09447708 0 51
-0.23021953 1.4716665 0.090808965 13.333333 50
